ply
format ascii 1.0
comment Created by Open3D
element vertex 898
property double x
property double y
property double z
property double nx
property double ny
property double nz
end_header
-376.752 147.692 2557.26 0.0343155 0.671124 0.74055
78.374 215.285 2432.52 -0.088174 -0.976503 0.196641
-341.488 318.347 2472.73 0.00531864 0.730071 0.683351
-462.126 18.2748 2683.41 -0.559099 0.315145 -0.766871
3.23887 330.688 2422.67 0.0447169 0.829633 0.556516
403.636 -188.364 2720 -0.0975564 -0.131863 -0.986456
138.169 -218.983 2535.59 -0.300827 0.346883 0.888356
158.298 -187.574 2546.38 -0.077864 -0.108441 0.991049
18.3679 -92.6052 2535.59 -0.0319806 -0.159956 0.986606
33.2203 -122.712 2535.59 -0.0608944 0.0190738 0.997962
43.4268 -157.633 2535.59 0.122002 -0.15436 0.980453
-322.889 102.933 2493.33 -0.638924 -0.70015 -0.318694
-159.635 -27.032 2732.42 0.229253 0.0590841 -0.971572
-311.706 -177.608 2624.56 0.97774 -0.0673593 -0.198716
-436.631 -227.543 2601.74 0.250132 0.490914 -0.834528
-6.80674 340.803 2365.22 0.0130489 -0.986064 -0.165852
-267.049 -287.161 2720 -0.0684495 0.0380653 0.996928
-256.969 -57.2172 2707.69 0.800125 0.0724524 0.595442
-306.897 -339.31 2579.31 -0.0864258 0.784515 0.614058
-436.87 -302.84 2601.74 -0.0238093 -0.0470618 0.998608
-514.798 147.085 2683.41 0.177277 0.169048 -0.969534
98.2573 320 2482.99 -0.00386985 -0.445163 -0.895441
-511.876 -177.325 2683.41 0.147526 -0.0322037 -0.988534
-276.409 -247.864 2720 0.0974478 -0.0232134 0.99497
218.577 168.236 2422.67 0.162855 -0.284958 0.944604
329.774 -72.7602 2707.69 0.986287 0.0387363 -0.160431
303.273 -387.636 2720 -0.0815716 0.0161498 0.996537
162.877 314.246 2482.99 -0.120992 -0.975527 -0.183595
258.489 -127.005 2659.56 0.115238 -0.0653641 0.991185
-226.97 -117.241 2579.31 -0.340973 -0.827753 0.445603
-386.489 -302.933 2659.56 -0.347087 -0.937586 -0.021528
238.596 69.0238 2422.67 0.183435 0.230725 0.955572
-607.692 -176.154 2876.92 -0.296561 -0.943055 -0.150661
-66.7207 276.599 2422.67 -0.168354 -0.273742 0.946954
-392.759 -328.276 2579.31 0.362963 0.888345 -0.28125
128.264 320.992 2472.73 0.00722977 -0.940193 -0.340565
105.191 -91.234 2546.38 -0.337582 -0.298408 0.892744
43.4188 -1.36752 2557.26 0.295388 -0.162368 0.941479
-96.7364 42.622 2503.77 0.0207327 0.169429 0.985324
163.402 -22.5829 2568.24 0.881741 0.315019 -0.351136
-22.0054 227.425 2432.52 -0.0922006 0.00471908 0.995729
-231.719 -272.212 2557.26 -0.579625 0.150111 -0.800938
-75.7796 27.2642 2514.29 0.856622 -0.143909 -0.495469
-462.063 -18.3757 2683.41 0.0277462 0.440647 0.897252
-456.682 -366.637 2683.41 -0.189321 0.646582 0.738978
273.481 -152.415 2659.56 0.211179 0.219788 -0.952416
198.374 331.924 2432.52 -0.0884063 -0.946772 -0.309528
-211.624 -302.613 2557.26 -0.326853 0.0748157 0.942109
-215.043 23.2479 2557.26 -0.359355 -0.831216 -0.424199
328.364 -197.818 2720 6.18736e-12 1.01822e-13 1
-50.3448 80.6897 2579.31 0.97209 0.14121 0.187354
-144 64.7273 2720 0.829161 -0.103422 0.54936
-136.836 -287.709 2720 0.172443 0.421618 0.890226
-16.6531 282.589 2442.45 -0.273386 0.00989064 0.961854
283.378 -155.377 2659.56 0.157179 0.0655683 -0.985391
-193.043 -103.652 2601.74 0.176939 0.774704 -0.607063
209.455 -259.151 2720 0.498447 -0.381587 -0.778423
-220.827 -381.186 2683.41 0.319143 -0.716111 -0.620752
73.1984 147.563 2422.67 -0.0576643 0.0996921 -0.993346
179.655 68.9655 2579.31 0.919315 -0.267502 -0.288623
-556.71 217.512 2647.79 0.247664 -0.962008 -0.114908
-219.91 -366.995 2683.41 0.430579 -0.388551 -0.814635
-521.639 -107.213 2452.46 0.611977 -0.447236 0.652276
-211.556 73.4815 2659.56 -0.34693 -0.269427 0.898359
88.4746 -122.305 2535.59 0.0216686 0.245739 0.969094
317.977 -96.8582 2659.56 -0.162116 -0.0556299 0.985202
-476.251 -63.3305 2503.77 0.963893 0.264786 0.0282662
-420.833 -93.8095 2671.43 0.359029 0.418928 0.834025
-167.339 -218.248 2732.42 -0.0849928 0.867352 0.490384
-416.627 343.843 2346.67 -0.131788 -0.56332 -0.815661
353.616 -97.8125 2671.43 -0.0321633 -0.0523912 0.998109
-101.818 340.553 2365.22 -0.0105875 -0.98081 -0.194677
48.3636 -337.455 2720 3.05954e-13 -2.30943e-12 1
-526.638 -193.362 2546.38 -0.239293 -0.939143 -0.246475
53.9124 186.794 2422.67 0.870592 0.275867 0.407391
87.4947 217.905 2442.45 -0.00190693 -0.997156 0.0753462
98.5393 82.6041 2422.67 -0.231694 -0.0374243 0.972069
-97.2549 -63.7104 2707.69 0.366963 0.469018 0.803343
-444.843 -396.413 2683.41 -0.0173547 0.998558 -0.0508093
-451.659 -92.5561 2683.41 -0.0849745 0.216541 0.972568
403.636 -367.855 2720 -0.0192795 -0.165271 -0.98606
-271.486 -78.5135 2695.5 -0.51919 -0.845478 0.124933
363.571 -97.8571 2671.43 -0.0679789 -0.00605381 0.997668
-6.77966 -243.39 2535.59 0.0677971 -0.102437 0.992426
373.571 -97.8571 2671.43 -0.0626246 0.0270125 0.997672
-181.357 -194.389 2707.69 0.583623 -0.1729 0.793404
-557.956 -97.6889 2659.56 0.84416 -0.23664 0.481036
145.691 -70.2439 2432.52 -0.468094 0.0874705 0.879339
-411.914 -129.524 2590.48 -0.228736 -0.396438 -0.88911
42.6304 229.297 2442.45 0.966252 0.079995 0.244864
93.2794 142.186 2422.67 -0.388045 0.30157 0.870906
-91.7155 42.622 2503.77 -0.196302 0.182017 0.963501
-206.578 197.689 2659.56 -0.331427 0.836254 0.436848
-65.6545 166.599 2503.77 -0.499812 0.183691 0.846431
378.617 -57.766 2671.43 -3.48525e-12 2.12315e-12 1
-21.6393 301.967 2452.46 -0.17693 -0.349392 0.92012
-286.648 232.655 2514.29 -0.265613 -0.291887 -0.918832
-281.652 197.263 2535.59 0.00462454 0.433275 0.90125
-216.652 -252.933 2568.24 -0.0792019 0.00813606 0.996825
133.091 -378.545 2720 0.0430066 -0.0161907 0.998944
-531.051 -371.411 2695.5 -0.334333 0.308551 0.890515
202.471 -137.988 2579.31 0.947765 -0.020143 -0.318332
318.394 73.8956 2403.21 -0.00380096 0.0581629 0.9983
63.6671 -287.618 2557.26 0.0126969 -0.729781 -0.683563
56.4898 304.98 2442.45 0.823293 -0.354523 -0.443285
-421.728 179.424 2462.55 0.106393 -0.851762 -0.513013
-356.485 -132.418 2503.77 -0.0105493 -0.0621093 0.998014
182.069 -67.5862 2579.31 0.163464 0.211617 -0.963586
-11.5745 15.6596 2546.38 0.393778 -0.316711 0.862921
-31.6596 -237.617 2546.38 0.442142 0.057316 0.895112
-479.644 -96 2659.56 0.767221 -0.641373 -0.00348437
-556.364 -133.818 2720 -0.190384 -0.92283 -0.334871
-455.885 102.521 2683.41 0.0959624 0.659233 0.74579
68.4303 302.599 2462.55 0.341944 0.760774 -0.551631
-476.8 -96 2659.56 0.70184 -0.687835 -0.185212
211.265 -0.653061 2442.45 -0.456856 0.837229 0.300551
208.041 303.306 2442.45 0.770318 0.0139777 0.637506
98.3607 262.787 2452.46 -0.60286 -0.693423 0.394619
-276.802 -172.429 2707.69 -0.0260986 0.377518 0.925635
-21.6949 -177.627 2535.59 0.015528 0.0307567 0.999406
-26.4407 145.424 2535.59 0.650081 0.690875 -0.316364
-241.455 -393.697 2720 0.0141135 -0.882617 -0.469882
-521.659 192.178 2659.56 -0.0207172 -0.106114 0.994138
129.315 -67.988 2422.67 -0.378621 -0.0695304 -0.922937
-282.476 256.143 2493.33 -0.357546 -0.326008 -0.875146
-540.091 -145.52 2707.69 0.613431 0.757517 0.223318
-381.772 -92.3207 2524.89 0.75935 0.534927 -0.370459
-347.187 -217.22 2503.77 0.491701 -0.339829 -0.801714
283.687 -297.252 2720 -0.305222 -0.0812688 0.948807
223.415 207.48 2432.52 0.11615 -0.26449 0.957368
-216.552 -347.242 2579.31 0.587193 -0.574549 -0.570173
-507.645 186.755 2659.56 -0.190926 -0.835651 0.515009
-196.717 172.863 2659.56 -0.452053 -0.0116196 0.891915
-21.551 292.462 2442.45 -0.453985 -0.562535 0.690979
-301.485 -217.089 2707.69 -0.107829 -0.18625 0.976567
-366.641 -56.639 2524.89 -0.354788 -0.866417 0.35135
148.34 151.579 2422.67 0.28618 -0.293652 0.912069
-175.495 87.5676 2695.5 0.943286 0.242029 0.227231
-326.878 -257.979 2707.69 -0.0479377 -0.0234446 0.998575
-237.002 22.7323 2452.46 0.891734 0.4515 0.0309744
63.5158 263.094 2442.45 0.658196 0.625368 -0.419158
-381.469 217.823 2442.45 -0.33989 0.419439 0.841751
-547.162 38.1344 2601.74 0.980238 -0.194651 0.0352844
217.758 24.4838 2647.79 0.0689079 0.0352171 -0.997001
-136.443 187.149 2442.45 -0.107 0.807281 0.580386
-364.082 305.959 2442.45 0.484051 0.0571361 -0.873173
-411.378 -8.33016 2659.56 0.265835 -0.962665 -0.0510731
-171.855 -50.9502 2707.69 0.699239 0.67741 -0.228432
278.233 190.201 2403.21 0.117737 -0.775367 0.620439
-226.774 322.15 2412.9 -0.112167 0.552364 -0.826022
-191.97 -331.379 2636.12 0.949275 -0.279763 -0.143561
-59.9149 -170.894 2546.38 0.480184 -0.2979 0.825032
-196.711 -108.594 2579.31 -0.00391491 -0.986374 0.164474
-6.46809 -217.872 2546.38 0.0950401 -0.263767 0.959893
-276.978 -329.244 2659.56 -0.00452601 -0.989386 -0.145244
-226.413 162.778 2647.79 0.107068 0.675959 -0.72912
-452.073 -6.6581 2613.1 0.758799 0.613089 0.219877
-446.812 -320.699 2613.1 0.476176 0.873032 -0.10522
-226.608 -95.1542 2636.12 -0.206871 -0.766447 0.608082
133.333 -347.032 2732.42 -0.0303287 0.452491 0.891253
-321.81 -307.863 2707.69 -0.208548 0.0352455 0.977377
-201.938 -96.3289 2636.12 -0.0913701 -0.131853 0.987049
-362.212 -269.298 2683.41 0.965412 -0.25961 0.024116
-331.945 -357.515 2568.24 0.550197 -0.199675 0.81081
183.32 177.166 2422.67 0.0503477 -0.228074 0.972341
163.306 129.115 2472.73 0.874937 -0.457356 -0.159092
-381.632 252.98 2442.45 -0.293561 -0.107252 0.949905
-206.5 27.1938 2452.46 0.307865 0.204912 -0.929102
-111.493 -98.0995 2707.69 0.662378 -0.62351 0.415321
-105.946 -97.2973 2695.5 0.502294 -0.444642 -0.741616
-346.778 272.803 2503.77 -0.090863 0.454277 0.886215
153.24 157.28 2432.52 0.51568 -0.628405 0.582393
158.247 -157.608 2432.52 -0.0800838 -0.473865 -0.876948
-66.6667 182 2493.33 0.413591 -0.385874 -0.824647
269.589 -402.557 2732.42 0.0444698 -0.365921 -0.929583
258.281 247.967 2432.52 0.692816 0.1394 0.707512
-301.298 14.5723 2647.79 0.123491 0.979872 0.156849
-516.561 -166.949 2683.41 -0.197499 0.21628 -0.956147
-291.592 323.918 2442.45 -0.028785 -0.949221 -0.313289
-442.042 -397.478 2695.5 -0.230952 0.512731 -0.826903
-321.763 326.835 2442.45 0.0211964 -0.974511 -0.223336
-224.85 -242.275 2568.24 -0.552726 0.089833 -0.828507
-281.991 -293.394 2707.69 -0.0722468 0.302189 0.950506
363.571 -112.857 2671.43 -0.1211 -0.0542987 0.991154
38.4389 312.278 2422.67 -0.63731 -0.310584 0.705247
-271.744 -182.202 2707.69 -0.106833 0.42474 0.89899
-71.6522 -93.7502 2546.38 0.120992 -0.227812 0.966159
-71.5461 -362.456 2683.41 0.853659 -0.500659 -0.143548
-436.757 151.351 2695.5 0.0185519 -0.991439 0.129244
-481.633 -92.0816 2442.45 0.0656379 -0.0764693 0.994909
104.685 93.2136 2442.45 -0.415723 -0.593114 0.689486
213.333 177.236 2432.52 -0.000185613 0.0149738 0.999888
308.293 11.7073 2432.52 0.347068 0.234825 0.907965
108.355 197.486 2472.73 0.225489 -0.699681 -0.677939
188.408 147.374 2442.45 0.571051 -0.089067 0.816068
28.0342 143.447 2557.26 0.870151 0.00330702 0.492773
-252.535 -96.7522 2557.26 0.569634 0.537347 -0.621913
164.767 141.453 2442.45 0.394198 -0.49955 -0.7714
-221.538 -307.692 2557.26 0.0576734 0.0969487 0.993617
201.888 -124.979 2568.24 0.822334 0.0129344 -0.568858
-516.951 -382.661 2683.41 -0.0166813 -0.042249 0.998968
-86.6087 -297.739 2601.74 -0.0175971 -0.0318366 0.999338
273.134 12.9581 2442.45 0.727932 0.473045 0.496329
229.636 172.437 2422.67 0.448359 -0.395184 0.80175
108.475 -187.506 2535.59 -0.105944 -0.0771394 0.991375
-512.16 -377.145 2683.41 -0.0836172 -0.00226032 0.996495
-506.667 -196.793 2524.89 -0.0601311 0.190473 -0.979849
-196.38 207.527 2412.9 0.40646 -0.571878 -0.712563
129.712 -88.8889 2462.55 0.773899 -0.298431 -0.558587
123.36 237.904 2462.55 -0.285994 0.265705 0.920656
132.801 -87.9823 2432.52 -0.30924 -0.0445235 -0.949941
393.409 -257.485 2720 2.3306e-12 1.17939e-12 1
188.297 56.7015 2647.79 0.561857 -0.195957 -0.80369
-516.429 107.143 2671.43 -0.0597332 0.103434 0.992841
-277.052 298.091 2482.99 0.897072 -0.0297095 0.440884
-606.377 154.589 2890.82 0.955472 0.123574 0.267959
-461.485 -204.716 2613.1 -0.598388 0.529092 -0.601659
-41.588 17.897 2568.24 0.257252 -0.423247 0.868725
348.571 -142.857 2671.43 -0.300258 -0.266376 0.915909
-130.401 71.058 2503.77 0.596313 0.158344 0.786981
-396.38 -7.23982 2707.69 -0.172477 0.0116584 0.984945
153.383 -88.1712 2422.67 -0.42787 -0.0792544 0.900359
383.273 -222.545 2720 2.25083e-12 1.35625e-15 1
158.309 -88.3851 2422.67 -0.462274 -0.0769741 0.88339
-266.973 -257.176 2720 0.146948 -0.0353442 0.988513
161.7 -87.9352 2422.67 -0.639048 -0.189859 0.745367
-456.682 -107.623 2683.41 0.000353299 -0.0998177 0.995006
63.3898 -152.881 2535.59 -0.0254773 -0.140327 0.989777
58.4363 148.213 2535.59 0.176827 0.387028 0.904954
-411.867 -303.515 2590.48 -0.315592 -0.311278 0.896386
278.23 -129.558 2647.79 0.132171 0.392883 -0.910041
18.1974 146.129 2568.24 0.915212 0.0841867 0.394081
128.327 128.163 2442.45 0.38076 -0.00254097 0.92467
-226.549 16.9912 2647.79 -0.323535 -0.833734 -0.447452
-276.448 -2.82759 2579.31 -0.356782 -0.926131 -0.122427
-463.571 -35.7143 2671.43 -0.570031 0.764368 0.301341
-284.228 86.5041 2432.52 0.317278 0.32202 -0.891985
138.553 -217.337 2546.38 -0.166781 0.0978596 0.981126
-76.8596 -307.22 2601.74 0.750369 -0.441034 0.492377
-365.202 -1.43498 2683.41 -0.476584 -0.0334847 0.878491
-421.676 -199.61 2624.56 0.861734 -0.318905 -0.394606
-249.946 -279.063 2695.5 0.922518 -0.192754 0.334374
239.545 -96.6877 2647.79 0.787775 -0.0930812 -0.608889
-191.811 342.362 2355.91 0.00828694 -0.985571 -0.169058
253.663 -96.9651 2659.56 -0.466805 -0.0382091 0.883535
192.74 -117.003 2557.26 0.931372 0.289999 -0.220104
-512.067 -392.814 2683.41 -0.0132675 -0.644221 -0.764725
-263.704 322.634 2462.55 -0.236863 0.949117 0.207541
-461.803 148.669 2568.24 -0.133278 -0.990181 0.0421815
-376.917 338.656 2365.22 -0.216253 0.903832 0.369219
-366.815 307.635 2452.46 0.845718 0.107707 -0.522648
-81.3913 -232.58 2601.74 0.195132 -0.450178 0.871357
-476.003 -362.653 2695.5 -0.199275 0.0689999 0.977511
-416.687 -47.7638 2535.59 -0.00790863 -0.51543 0.856895
-161.81 -192.941 2707.69 0.883951 0.418215 0.209112
113.527 320 2482.99 -0.0139496 -0.601683 -0.798613
-570.667 188.088 2659.56 0.736888 0.569412 0.364372
-328 -180.174 2601.74 0.959887 -0.233366 -0.155425
-566.816 208.789 2683.41 0.978035 -0.205485 -0.0349682
203.172 272.681 2452.46 0.96017 0.135977 0.2441
-505.617 346.037 2355.91 0.118689 0.965973 0.229803
133.275 272.418 2462.55 -0.150787 -0.421905 0.894013
326.829 13.6585 2432.52 0.34468 0.134672 0.92901
298.449 -15.0204 2442.45 0.7541 -0.652959 0.0705573
-51.7073 267.642 2432.52 -0.119808 0.064118 0.990724
-16.6139 227.317 2442.45 -0.0945284 0.0523774 0.994143
164.073 -403.127 2720 -0.0156693 0.747317 0.664283
-136.206 -196.72 2613.1 0.869386 0.411119 0.274134
-111.417 287.288 2422.67 -0.21771 -0.168401 0.961376
-555.398 -96.2832 2647.79 0.948417 -0.0903877 0.303868
104.081 107.129 2442.45 0.315662 0.0394962 -0.948049
-205.611 -382.986 2707.69 0.943085 0.149567 -0.297019
-107.345 -137.115 2720 0.13966 0.51345 -0.846678
-346.876 -11.9268 2695.5 -0.334749 0.130838 -0.93318
-341.622 -336.937 2695.5 0.197916 -0.256664 -0.94602
108.108 -370.45 2695.5 0.70704 -0.442023 0.552005
308.434 196.948 2403.21 0.117547 -0.178433 0.976906
8.19672 303.344 2452.46 -0.00835393 -0.154894 0.987896
128.219 -396.347 2732.42 0.0356728 0.332882 -0.942294
-220.697 -232.531 2557.26 -0.657942 0.119265 -0.743564
283.373 190.201 2403.21 -0.024911 -0.779398 0.626034
164.248 -290.737 2647.79 0.576501 -0.799771 -0.16737
373.616 -87.8274 2671.43 -0.0631355 -0.022851 0.997743
238.789 242.333 2432.52 0.762989 -0.0842806 0.640894
-127.783 -253.394 2707.69 0.981166 0.193096 0.00522241
-81.626 302.439 2432.52 -0.17274 -0.331305 0.927576
-476.326 -98.2218 2683.41 -0.342268 0.253485 0.904764
-246.802 209.231 2422.67 0.830169 0.138766 0.539966
-381.429 -287.143 2671.43 0.105214 -0.963797 -0.245002
193.35 345.889 2346.67 0.00744993 0.988832 0.148849
-111.178 -236.901 2601.74 0.235054 0.294926 0.926158
-76.4638 -222.744 2601.74 0.436874 0.0674242 0.896992
-551.173 37.7839 2624.56 0.992959 -0.11816 -0.00843134
-156.761 322.429 2422.67 0.187656 -0.902713 -0.387161
-131.478 -367.652 2601.74 0.041488 -0.144768 0.988595
-211.845 -257.511 2568.24 0.196205 -0.21878 0.955845
-331.381 313.672 2472.73 0.238738 -0.848117 -0.472971
-422.073 181.29 2462.55 0.0717963 -0.872084 -0.484061
-324.715 46.686 2601.74 -0.427436 0.119509 -0.896112
-26.9091 -323.091 2720 -0.0559316 -0.537753 0.841245
-287.712 29.322 2535.59 0.82275 0.539389 0.179281
-471.289 151.422 2590.48 0.60305 -0.731692 0.317739
-7.08158 127.569 2579.31 0.0392225 -0.718159 0.694773
-366.753 -338.131 2590.48 -0.192942 -0.885923 -0.421799
-296.068 -337.094 2557.26 -0.327827 0.377447 -0.866062
223.214 12.8428 2422.67 0.269971 -0.347936 -0.897806
218.299 302.942 2422.67 0.536873 -0.0245028 0.843307
273.496 42.6666 2432.52 0.376381 0.101453 0.920893
-411.48 -186.906 2683.41 0.786619 -0.614429 0.0608956
-81.459 232.002 2432.52 -0.33477 0.215629 0.917297
-416.313 127.505 2683.41 0.274623 0.160674 -0.948033
-166.478 302.186 2422.67 0.013178 -0.374946 0.926953
-356.114 -62.6142 2568.24 0.84815 0.359453 -0.389148
-26.5532 -111.319 2546.38 0.374082 -0.178151 0.910124
-530.811 -132.613 2695.5 -0.0763392 -0.995869 0.0491617
169.182 -211.575 2557.26 -0.586852 0.230535 0.776182
163.524 102.932 2557.26 0.524072 -0.294673 -0.799072
-156.842 117.895 2624.56 0.451225 -0.795399 0.404643
-236.491 -95.4386 2624.56 -0.534629 -0.804172 0.259768
-136.644 -377.621 2601.74 0.020088 0.346421 0.937864
158.34 276.404 2482.99 -0.0473458 0.00132108 0.998878
-16.6102 -103.051 2535.59 0.446172 -0.262669 0.855532
-101.939 317.249 2432.52 -0.260988 -0.231763 0.937108
28.3636 -347.636 2720 -1.44301e-13 -1.13949e-12 1
98.4616 97.4899 2422.67 -0.335537 -0.219689 0.916052
-391.525 -258.983 2535.59 0.182193 -0.968507 -0.169705
28.2553 162.893 2546.38 -0.669634 -0.578215 -0.466109
-316.742 -297.557 2707.69 -0.12794 0.0808804 0.988478
103.374 237.366 2462.55 -0.0527986 0.217762 0.974573
-416.807 -264.202 2514.29 -0.264799 0.912293 0.312415
73.2323 -392.384 2720 0.0121405 -0.81427 0.58036
217.352 -350.685 2732.42 -0.216142 0.408359 -0.886863
-456.665 178.768 2452.46 -0.368673 0.636062 0.677868
-1.69492 -132.203 2535.59 -0.191326 -0.1202 -0.974139
147.939 -128.292 2546.38 0.00752674 -0.00753482 -0.999943
-31.5152 72.7273 2590.48 -0.221012 -0.757058 -0.61483
-577.057 -111.591 2695.5 0.979632 0.0325687 -0.19814
288.356 -117.333 2659.56 -0.017402 -0.152865 0.988094
-186.667 -96.7111 2659.56 -0.327906 -0.93025 0.164658
-68.7137 183.9 2482.99 -0.189591 0.768531 0.611078
153.093 157.84 2442.45 0.205395 -0.401439 0.892558
-376.709 -69.1983 2524.89 -0.0158824 0.380443 0.924668
258.866 247.53 2422.67 0.570052 0.298247 0.765565
-1.50706 322.964 2442.45 0.147077 -0.944546 -0.293601
-401.422 -191.645 2659.56 0.715077 -0.417414 0.560741
343.273 -277.818 2720 0.123139 -0.0569603 0.990753
-121.626 193.171 2432.52 -0.137982 0.62864 0.765358
-151.674 -98.2202 2707.69 0.10628 0.885811 -0.451712
174.183 42.2009 2613.1 0.928963 -0.187827 -0.31898
148.065 -101.911 2422.67 -0.241801 0.268353 0.93248
-541.511 171.378 2659.56 -0.384973 -0.839097 -0.384334
98.3593 328.387 2422.67 0.0424152 -0.974261 -0.221396
-182.474 7.45157 2452.46 0.302399 0.115161 -0.946199
203.198 150.703 2442.45 0.477085 0.0877544 0.874465
88.1702 -107.12 2546.38 -0.138802 0.352104 0.925612
-277.013 -297.141 2707.69 0.119606 0.00268196 -0.992818
238.584 -122.006 2647.79 0.696678 -0.391444 -0.601175
-384.215 -317.847 2683.41 0.835873 -0.529863 -0.143388
-391.252 -3.14591 2683.41 0.605898 -0.510226 -0.610375
-75.8159 138.689 2503.77 -0.462145 0.179986 0.868347
-411.477 -255.527 2524.89 0.0635566 -0.743391 -0.66583
-221.026 -206.211 2557.26 -0.537465 -0.074001 -0.840033
333.077 57.2953 2412.9 0.108074 -0.343753 -0.93282
-291.724 -381.724 2579.31 0.0184316 0.997624 0.0663806
323.548 33.2258 2412.9 0.0883915 0.0913744 0.991886
-26.4378 52.1888 2568.24 -0.0171131 -0.418991 0.907829
-420.863 -296.317 2636.12 0.73715 0.643393 -0.206532
-426.079 27.8143 2636.12 0.903043 0.429118 0.0192906
-396.492 -233.935 2503.77 -0.128858 -0.0291601 0.991234
-196.931 -138.84 2613.1 0.950585 0.0735499 -0.301627
-206.609 -337.74 2601.74 0.742223 0.0194316 -0.669871
-77.4899 243.482 2422.67 -0.195061 0.155475 0.96839
-436.652 177.803 2472.73 -0.0644796 0.194105 0.978859
-357.162 -343.108 2695.5 -0.0925449 0.619737 0.779334
-291.707 326.894 2432.52 -0.00815109 -0.979795 -0.199839
-301.714 323.918 2442.45 0.00123936 -0.956972 -0.290178
248.36 -3.92103 2647.79 0.2415 -0.168448 -0.955669
-581.115 17.163 2744.95 0.984566 -0.0411326 0.170111
173.168 -317.756 2720 -1.76183e-12 1.32085e-12 1
-556.32 6.19048 2590.48 0.980357 -0.129016 0.149183
-353.571 -259.286 2671.43 0.923764 -0.301268 -0.236427
-46.5823 73.2489 2524.89 -0.0433077 0.502721 -0.863363
268.594 327.16 2403.21 -0.384744 -0.0885813 -0.918763
-371.724 -109.655 2579.31 -0.00356933 0.89848 0.439
-541.429 168.52 2671.43 -0.451562 -0.0877101 0.887918
-266.692 137.205 2568.24 0.0585846 0.54558 0.836009
138.461 -262.564 2557.26 -0.200943 0.111318 0.973258
378.182 -167.273 2720 -0.0183649 0.177013 0.984037
-133.56 76.7092 2546.38 0.993936 0.0951805 0.0550646
-486.179 327.805 2432.52 -0.0944208 -0.978245 -0.18472
148.381 223.176 2472.73 -0.251048 0.176735 0.951704
-430.717 159.325 2524.89 0.949143 -0.109409 -0.295224
373.476 -137.73 2671.43 0.00234097 0.131513 0.991312
-496.653 -92.2449 2442.45 0.115554 -0.0934308 0.988897
-526.578 147.2 2659.56 -0.0427555 -0.773712 0.632094
67.8532 286.994 2452.46 -0.555085 -0.454253 0.696803
123.574 -165.447 2546.38 -0.347273 -0.258453 0.901445
-451.659 95.7847 2683.41 0.409962 0.346526 0.843712
-511.598 -187.838 2671.43 0.967136 0.0854184 0.239484
123.428 98.1769 2442.45 -0.145236 0.436842 -0.887736
-276.364 -257.018 2720 0.350838 0.0527722 -0.934948
373.091 -337.818 2720 -3.44897e-12 1.26199e-12 1
-7.84314 102.592 2590.48 0.509635 0.0432617 0.859302
333.091 -377.455 2720 2.44095e-12 1.04325e-12 1
-296.104 2.07792 2590.48 0.547949 0.715014 0.434173
-121.322 -317.743 2601.74 -0.167077 0.260465 -0.950917
-201.638 -323.93 2624.56 0.92102 -0.366711 -0.13132
-496.507 233.787 2493.33 0.025502 0.677921 0.734692
-236.829 188.843 2422.67 0.197067 0.855471 0.478888
-401.674 -242.343 2503.77 -0.0252343 0.129299 0.991285
-256.653 295.184 2442.45 0.186667 0.353347 0.916679
-61.2605 91.5966 2514.29 0.854094 -0.035347 -0.518917
-466.445 -352.793 2695.5 0.294303 0.408122 0.864189
-191.211 -331.941 2683.41 0.994235 -0.0790624 -0.0724222
-516.543 -102.712 2452.46 0.649026 -0.405678 0.643576
-421.603 -263.966 2524.89 0.293667 -0.938526 0.181463
-257.068 88.1774 2452.46 0.46337 0.571161 -0.677542
-577.196 162.243 2796.26 0.925285 -0.0639713 0.373838
220.174 -123.826 2601.74 0.613753 -0.547441 -0.568872
-511.481 12.3868 2671.43 -0.156942 -0.236936 0.958765
-506.429 -314.286 2671.43 -0.0510471 0.000768123 0.998696
-216.652 -248.126 2568.24 0.0839168 0.0130491 0.996387
53.4468 -17.9291 2546.38 -0.00814018 -0.111175 0.993767
8.47458 -232.542 2535.59 0.110014 0.00822414 0.993896
318.455 -262.818 2720 0.00153248 -0.155902 0.987771
-26.9732 162.299 2579.31 0.748266 -0.463609 -0.474516
218.962 227.042 2432.52 0.361803 -0.225855 0.904482
-79.3191 -53.7872 2546.38 0.687757 -0.124692 0.715152
17.6824 82.6895 2568.24 0.159501 -0.359733 0.919321
-141.818 -102.061 2720 0.398616 0.423305 -0.813584
-296.471 -287.421 2707.69 -0.124244 0.0652002 0.990107
118.543 116.923 2422.67 -0.0318954 0.119893 -0.992274
-321.717 -367.519 2568.24 0.138034 0.374115 0.917052
136.585 -88.4553 2432.52 -0.111461 0.0379306 -0.993045
22.3925 312.753 2432.52 0.988261 0.104552 0.111399
-499.556 -125.867 2659.56 -0.0791418 -0.159044 -0.984094
-507.52 197.405 2659.56 0.87763 0.0282509 0.478505
-194.182 82.1818 2720 0.810113 0.167244 0.561914
-361.524 192.71 2452.46 -0.538924 -0.263527 0.800071
-422.124 -391.681 2647.79 0.527296 0.817739 0.230786
-297.377 278.033 2452.46 -0.271275 -0.074229 -0.959635
147.859 8.02168 2432.52 0.296237 0.61393 0.731665
143.415 330.407 2432.52 0.0222375 -0.985463 -0.168429
-551.579 217.193 2624.56 0.599997 -0.498346 0.625824
-31.8329 95.6505 2557.26 -0.267092 0.667896 0.694677
278.387 72.5346 2412.9 0.252948 0.494358 0.831641
-581.926 -6.88889 2770.37 0.784109 0.533209 0.317587
-276.61 176.271 2535.59 -0.314115 0.328882 0.8906
363.571 -142.5 2671.43 -0.120764 0.0277277 0.992294
178.182 -367.273 2720 0.0341968 -0.718743 -0.694435
235.771 -95.859 2636.12 0.867638 -0.157563 -0.47157
198.219 2.1284 2422.67 0.0422283 -0.445573 -0.894249
-11.5226 187.544 2462.55 0.0819409 -0.882423 -0.463265
48.4746 -217.627 2535.59 0.0461833 0.141026 0.988928
-589.851 -175.124 2977.11 -0.583155 -0.785848 -0.205848
-181.613 225.484 2412.9 -0.056749 0.0146359 0.998281
-101.757 101.088 2503.77 -0.0145844 0.111731 0.993631
187.654 325.267 2462.55 -0.334601 -0.903226 -0.268746
-481.268 -383.51 2695.5 0.115312 0.0138523 0.993233
253.249 173.525 2403.21 0.274909 0.0375707 0.960736
-486.426 333.173 2403.21 0.00625641 -0.931098 -0.364715
-56.7521 -129.231 2557.26 -0.0611986 0.181047 0.981569
268.484 -77.5111 2659.56 -0.204462 0.0889178 0.974828
-396.423 252.683 2432.52 -0.27853 0.0931212 0.955902
68.3272 121.769 2535.59 -0.100307 -0.239819 0.965622
73.2203 -192.316 2535.59 -0.0713597 -0.374373 0.924528
-512.9 -92.1372 2462.55 0.806509 -0.195561 0.557942
-261.787 177.702 2546.38 -0.0152617 0.495998 0.86819
-351.803 322.295 2452.46 0.017841 -0.894538 -0.446635
188.364 -357.964 2720 0.218282 0.655449 -0.723007
-436.216 -187.249 2613.1 -0.313119 -0.277326 -0.908321
-416.071 -168.951 2636.12 -0.131863 0.970478 0.201952
-255.154 48.6344 2636.12 0.709526 0.684723 -0.166517
-480 214.008 2524.89 -0.533921 -0.761256 -0.367992
-416.735 -288.19 2659.56 -0.440362 0.746135 0.499364
-47.5676 -355.315 2695.5 0.681598 -0.652469 -0.331224
-81.3333 -307.575 2601.74 0.369675 -0.613877 0.697493
373.683 -122.921 2671.43 -0.0757241 -0.0133908 0.997039
-522.424 -133.333 2720 0.0582381 -0.988109 0.142296
-526.637 -396.771 2683.41 0.174913 0.285723 -0.942214
-526.667 255.667 2493.33 0.364899 0.368801 -0.854889
133.104 72.4955 2422.67 -0.0904568 0.0335971 -0.995334
97.9149 -107.361 2546.38 -0.229413 -0.0589976 -0.971539
32.5558 321.82 2412.9 -0.0985877 0.0317569 0.994622
-411.654 337.323 2355.91 -0.0219573 0.553464 0.832584
-286.897 8.96551 2579.31 0.852896 0.297788 0.428825
-316.533 -71.7333 2659.56 0.723313 0.647857 -0.238956
-496.529 287.273 2472.73 0.670633 -0.361043 0.647997
193.293 37.79 2647.79 -0.367046 -0.126045 0.921624
-382.203 -119.247 2601.74 -0.418104 -0.278873 -0.864534
-486.78 -256.271 2535.59 -0.0523295 -0.982146 -0.180693
-346.667 78.9611 2590.48 0.0373224 0.85533 0.516737
-191.443 272.666 2412.9 -0.127996 -0.309011 0.942406
-26.672 -157.403 2546.38 -0.00171546 0.370721 0.928743
-31.5025 177.493 2546.38 0.943754 -0.176082 -0.279863
-481.059 -217.415 2535.59 -0.315449 -0.897085 0.309403
-126.64 302.51 2422.67 -0.100444 -0.35265 0.930349
-296.727 -182.182 2720 -0.207499 0.0851871 0.974519
-386.306 63.0631 2695.5 0.314596 0.0351553 -0.948574
283.279 -2.95082 2452.46 -0.558194 -0.558194 -0.613872
-31.6735 283.102 2442.45 -0.258547 -0.131656 0.956985
-26.6667 317.398 2432.52 0.180041 0.315564 0.931668
-176.55 328.864 2412.9 -0.0489604 0.659444 0.750158
93.456 332.131 2422.67 0.014051 -0.978175 -0.207308
-96.6234 -331.083 2590.48 0.175696 0.0669871 0.982163
183.548 333.333 2412.9 0.00709666 -0.989462 -0.14462
-486.816 -317.848 2683.41 -0.351981 -0.154429 0.92318
-491.839 8.60986 2683.41 0.277047 0.12345 -0.952893
-477.299 -92.4895 2524.89 0.827155 -0.511918 -0.231851
-486.131 -97.5595 2671.43 0.763764 -0.638619 -0.0939734
-56.9162 -137.819 2557.26 -0.0319764 0.0615802 0.99759
-391.704 -286.578 2659.56 0.835021 -0.47066 -0.284989
148.305 197.383 2482.99 0.0301179 0.156429 0.98723
-391.499 56.8773 2683.41 -0.0647755 0.105716 0.992284
238.451 -262.688 2720 -0.167343 -0.00898313 0.985858
-476.491 -209.123 2624.56 -0.384449 0.891088 -0.241168
-461.704 88.7294 2683.41 0.116002 -0.621757 0.774572
273.67 52.7288 2422.67 0.32239 0.553406 0.767989
63.3469 322.938 2442.45 -0.0868926 0.972684 0.215258
-386.897 -112.414 2579.31 0.13266 0.881515 0.453136
-361.802 -327.387 2695.5 0.339988 0.0670372 -0.938037
-366.847 -12.2523 2695.5 0.096917 0.0232906 0.99502
147.797 -171.525 2535.59 -0.437108 0.265282 0.859396
88.398 -241.706 2535.59 -0.0598874 0.383969 0.921402
113.455 -366.545 2720 0.131652 -0.521574 0.842988
83.3898 72.7118 2535.59 -0.00651964 0.205063 0.978727
200.308 283.211 2442.45 0.940445 0.338121 0.0351806
-361.519 -93.1646 2524.89 -0.22712 0.264589 -0.937235
-251.624 -342.564 2557.26 -0.0261218 0.0399752 0.998859
333.333 -26.9919 2432.52 0.0513449 0.0343146 -0.998091
-61.4592 11.3304 2568.24 0.444685 -0.755065 0.481801
233.331 242.6 2442.45 0.669974 -0.252892 0.697983
-386.457 302.299 2355.91 -0.144346 -0.161175 0.976313
-301.913 2.43478 2601.74 0.274955 -0.125183 0.953273
-455.546 4.89083 2613.1 0.867419 0.407789 0.28512
-451.703 -320.699 2613.1 0.685781 0.674722 -0.272863
288.364 -162.545 2720 0.0525 0.135453 -0.989392
-366.527 -172.943 2503.77 0.230651 -0.0912174 0.968751
-552.825 -253.991 2683.41 -0.295164 -0.452637 -0.841426
-346.667 -344.242 2590.48 -0.0831335 -0.871896 -0.482582
-421.732 307.717 2355.91 -0.0971181 0.407878 0.907857
189.367 -125.57 2524.89 0.963869 0.192969 -0.183626
223.279 33.1148 2452.46 0.758541 -0.625211 0.183651
28.2553 -152.851 2546.38 0.0197534 -0.000294591 0.999805
23.6465 170.841 2546.38 0.535992 0.809362 0.240095
-406.457 -13.6323 2683.41 0.495969 -0.775902 -0.389861
-576.218 -396.308 2707.69 0.770294 0.523258 0.364483
-60.9373 -208.069 2568.24 0.666299 0.468339 0.580262
-126.89 311.892 2422.67 -0.186885 -0.33845 0.922239
238.817 127.742 2412.9 0.34562 -0.329769 0.878521
-152.116 236.169 2403.21 -0.303496 -0.0982102 0.947758
-142.831 -347.763 2732.42 0.546065 -0.36636 0.753388
258.504 127.8 2412.9 0.599645 -0.375336 0.706787
-236.087 -96.6987 2613.1 0.272174 0.923848 -0.269122
-336.64 333.653 2393.6 0.0505988 -0.97021 -0.236922
-226.725 -96.4192 2613.1 0.0230362 -0.875944 0.481863
190.041 318.694 2442.45 0.576502 0.409202 0.707247
193.742 -6.09524 2442.45 -0.170575 0.955023 0.242558
-520.779 248.657 2482.99 0.181772 0.750642 0.635213
-517.842 -83.6515 2482.99 0.951735 -0.0699495 0.298843
-216.14 -96.6082 2624.56 0.997337 -0.0281788 -0.0672699
-281.888 -122.576 2568.24 0.0801961 0.713864 -0.695677
-82.1212 97.3636 2493.33 -0.34715 0.18081 0.920214
108.493 -387.946 2732.42 0.0663616 -0.261516 0.962915
-206.188 -96.3318 2624.56 0.844736 0.483378 -0.229709
-451.864 160.925 2442.45 0.819107 -0.555042 0.144885
298.3 202.105 2422.67 0.3681 0.129148 0.920773
-147.088 -113.123 2624.56 0.43801 0.440897 -0.783426
313.455 -297.091 2720 0.00226433 0.253099 0.967438
-112.048 262.371 2412.9 -0.334629 0.0015181 0.942349
263.44 -82.6469 2659.56 -0.220365 0.182923 0.958112
-201.219 -96.9529 2624.56 -0.533495 -0.805254 0.258745
163.577 181.138 2432.52 0.577957 -0.377264 0.723629
168.455 -132.358 2432.52 -0.0635019 -0.166808 0.983942
182.47 117.869 2535.59 0.894761 -0.248823 -0.370796
-131.613 272.581 2412.9 -0.122216 -0.058489 0.990779
-46.6968 -286.697 2707.69 0.625794 -0.256355 -0.736658
173.11 158.451 2422.67 0.020155 0.514156 -0.85746
-181.818 -182.545 2720 0.0857748 -0.133733 0.987298
133.391 -287.082 2568.24 0.439555 -0.81161 -0.384813
-326.897 -98.6207 2579.31 -0.228789 -0.421655 -0.877418
-231.616 -88.7336 2613.1 -0.0256099 -0.878455 0.477138
-161.54 232.32 2412.9 -0.0483671 -0.333968 0.941343
-226.266 -8.05505 2384.06 -0.0414393 -0.997028 0.0649413
-121.781 237.408 2422.67 -0.293639 0.102025 0.950456
-116.599 207.18 2422.67 -0.165609 0.428686 0.888145
168.511 -192.681 2546.38 -0.225213 0.0873628 0.970385
203.375 -182.817 2579.31 0.888079 0.00889352 -0.459605
199.31 -170.345 2579.31 0.902254 -0.123765 -0.413061
-375.901 -258.981 2601.74 -0.521273 0.842857 0.133667
-31.2446 71.4163 2568.24 0.123449 0.218439 0.968011
-501.429 -314.285 2671.43 -0.10179 -0.000381822 0.994806
-506.541 1.8797 2671.43 -0.160358 -0.0348153 0.986445
133.765 132.279 2422.67 0.21331 -0.252732 0.94373
98.4256 -77.5745 2546.38 -0.278783 -0.322527 0.904575
212.687 -126.846 2590.48 0.568981 -0.594259 -0.568434
28.4746 159.322 2535.59 0.387383 0.288354 0.875663
33.1319 -167.37 2535.59 0.0704064 -0.117364 0.99059
-474.098 -52.7869 2452.46 0.962938 0.265826 0.0456924
-251.724 -132.069 2579.31 -0.0830771 -0.371787 0.924593
-96.5182 257.49 2422.67 -0.106971 0.00504741 0.994249
-461.405 -387.604 2695.5 -0.217412 -0.121352 0.968507
-451.634 287.486 2365.22 -0.470777 0.310205 -0.825919
-351.588 -357.081 2568.24 -0.0341777 -0.0791259 0.996279
-245.141 221.687 2403.21 -0.418678 -0.0896868 -0.903695
-141.463 192.52 2432.52 0.142154 -0.741333 -0.65591
-121.613 277.903 2412.9 -0.322671 -0.17279 0.930605
-156.632 138.807 2624.56 -0.68294 -0.687207 -0.247668
-150.035 -185.825 2624.56 0.891158 0.361403 0.274271
-396.949 -267.119 2535.59 0.151112 -0.988267 0.022223
44.3264 248.121 2412.9 -0.387626 -0.143036 -0.910652
-466.429 96.9643 2671.43 0.342522 -0.518277 -0.783624
-336.913 -92.7743 2535.59 0.811918 0.571516 -0.118995
223.415 131.599 2432.52 0.729353 -0.57883 0.364692
-376.601 -232.106 2514.29 0.0385629 -0.0800863 0.996042
193.455 -382.545 2720 0.0684823 -0.0797711 0.994458
44.0858 312.535 2452.46 0.963733 0.184011 -0.193282
-451.659 -102.601 2683.41 -3.30155e-14 -2.24832e-12 1
3.28767 -380.639 2732.42 -0.14677 0.327801 -0.933277
-271.741 -176.9 2707.69 -0.0708551 0.309714 0.948186
158.356 152.593 2422.67 0.44277 -0.252658 0.860302
-136.511 -7.71631 2546.38 0.117645 -0.990363 -0.0730816
-266.787 -182.322 2707.69 -0.124119 0.4823 0.867168
-386.368 -284.485 2683.41 -0.657803 0.739539 0.142752
-391.39 42.3318 2683.41 -0.191451 -0.0661632 0.97927
-33.7021 -74.8936 2546.38 0.106618 0.141382 0.984197
-352.69 -232.69 2624.56 0.792468 -0.60087 -0.104638
-341.357 -277.285 2707.69 0.145571 0.12427 0.981512
-36.4255 83.4043 2546.38 0.499489 0.821346 0.275504
-31.7643 -232.293 2546.38 0.348155 0.346127 0.871197
-274.327 -401.891 2720 0.119742 -0.934536 -0.33512
167.243 271.276 2462.55 0.244246 0.0940044 -0.965146
-361.343 -272.236 2695.5 -0.154565 -0.961189 0.22853
-331.611 -362.45 2568.24 0.382687 0.298184 0.874435
-366.847 52.6126 2695.5 -0.084206 0.0777276 0.993412
18.6301 -380.639 2732.42 0.0528612 0.318925 -0.946305
288.892 197.139 2412.9 0.613826 -0.288778 0.734728
-426.539 -226.957 2601.74 0.80769 -0.202753 -0.55365
-31.5676 -257.454 2546.38 0.388486 0.622123 0.679736
-341.213 -252.236 2707.69 0.0182259 0.0669323 0.997591
-171.636 -392.727 2720 0.237612 -0.213721 0.947557
-21.6949 -112.678 2535.59 0.282852 -0.410872 0.866706
-471.429 71.7857 2671.43 0.146635 -0.158684 0.97638
-46.5021 107.802 2546.38 0.795703 -0.0174113 -0.605436
-41.8007 -206.298 2546.38 -0.560137 -0.590413 -0.581085
-499.82 -347.387 2695.5 0.433727 0.0308812 -0.900515
173.223 262.876 2472.73 -0.306996 0.380415 0.872375
-527.609 -92.0397 2514.29 0.939078 -0.335395 0.0751208
-411.7 307.141 2365.22 -0.0526417 0.0177363 0.998456
33.2392 207.171 2432.52 0.14634 -0.97038 0.192215
-212.039 -58.0784 2493.33 0.500796 0.848195 -0.172539
-506.429 21.9048 2671.43 0.10675 0.0709148 0.991754
-131.474 97.4431 2503.77 0.681992 0.186339 0.707223
153.171 -112.52 2432.52 -0.182995 0.11503 0.976361
-531.429 102.143 2671.43 0.0430975 -0.00187769 0.999069
158.936 -228.414 2557.26 -0.557097 0.425367 0.713236
-396.581 170.256 2557.26 -0.0963414 0.606603 0.789146
268.516 222.108 2412.9 0.0640164 0.00238394 0.997946
-224.721 -226.524 2568.24 -0.688258 0.0470846 -0.723936
-261.695 192.542 2535.59 -0.138675 -0.491457 -0.85979
-282.414 24.1379 2579.31 0.925613 0.377335 0.0293
-234.69 -20.531 2647.79 0.716106 -0.696035 -0.0522291
-509.776 -134.888 2683.41 0.424916 -0.196472 -0.883654
-528.142 161.138 2659.56 0.681334 -0.0123047 -0.731869
102.885 312.393 2452.46 0.19361 -0.541831 -0.817884
-496.653 -88.3265 2442.45 0.0594457 -0.108215 0.992349
133.226 -92.5276 2546.38 -0.0459165 0.0846389 -0.995353
88.1702 -238.979 2546.38 -0.202975 0.502701 0.840293
82.8369 87.1035 2546.38 0.40081 0.170548 0.900147
-301.322 -65.5507 2636.12 0.314786 0.943066 -0.107405
-196.585 -308.07 2624.56 0.966408 -0.222533 -0.128587
-129.283 20.2532 2524.89 0.789875 -0.0599931 0.610327
-161.613 257.527 2412.9 -0.0305051 0.281558 0.959059
-256.485 -263.139 2707.69 0.105685 -0.605121 0.789088
-466.467 -253.656 2524.89 0.827979 -0.523282 0.201559
173.516 -349.954 2732.42 -0.0586875 0.361043 -0.930701
-375.238 176.358 2514.29 -0.0241234 0.999632 0.0124216
-369.748 -137.815 2514.29 0.789535 0.216707 0.574172
220.102 -27.5797 2590.48 0.760848 0.382978 -0.523868
-501.37 -91.9123 2442.45 0.302249 -0.026944 0.952848
78.3806 141.863 2422.67 -0.232211 -0.106806 0.966784
-501.604 -142.447 2524.89 0.865193 -0.435743 -0.248131
-216.752 -262.564 2557.26 0.134291 -0.169218 0.976387
218.105 -137.725 2647.79 0.622953 -0.280221 -0.730346
-236.507 -88.7336 2613.1 -0.0993846 -0.945035 0.311499
-156.624 -10.8017 2524.89 0.113949 0.992707 -0.0393412
398.545 -158.909 2720 0.0130047 -0.0154193 -0.999797
-401.697 -317.363 2636.12 0.967595 0.147101 -0.205235
153.622 326.836 2442.45 0.0425955 -0.982981 -0.178698
253.438 345.312 2337.5 0.00989261 0.988763 0.149164
-142.03 222.231 2422.67 -0.256512 0.410993 0.874806
-246.809 172.596 2546.38 -0.141352 -0.476629 -0.867666
-276.539 188.936 2546.38 0.0248808 0.331795 0.943023
-6.82927 317.615 2432.52 0.283509 0.0576953 0.957232
132.63 -251.779 2546.38 -0.425062 0.369941 0.826115
208.364 -312.727 2720 0.0123912 0.143835 0.989524
121.356 -231.186 2535.59 -0.314647 0.184053 0.931194
-551.39 -352.287 2683.41 -0.00692429 0.0389375 0.999218
108.216 313.361 2482.99 -0.039469 -0.307368 -0.950772
258.112 -137.05 2647.79 0.0018798 -0.0557644 0.998442
-466.726 83.2287 2683.41 -0.011888 -0.568541 0.822569
-276.667 86.9399 2452.46 -0.630705 -0.161431 0.759046
-91.7207 -212.006 2601.74 -0.00981547 -0.0723595 0.99733
-521.479 -238.798 2535.59 0.81991 0.549776 0.159667
-366.566 328.15 2422.67 0.190462 -0.950216 -0.246605
-326.983 313.139 2462.55 -0.308298 0.943203 -0.123772
-401.15 253.367 2365.22 0.232635 -0.951123 -0.203092
-323.117 -344.242 2590.48 0.0925046 0.847308 0.522983
218.12 127.636 2432.52 0.895326 -0.14982 0.419458
-220.383 38.4699 2452.46 -0.0863939 -0.112222 0.98992
-571.273 -178.882 2671.43 0.279925 0.0283574 -0.959603
-412.936 111.66 2546.38 0.717344 -0.0151824 -0.696554
278.371 -390.588 2707.69 -0.00897689 -0.539353 -0.842032
-151.613 282.258 2412.9 -0.19086 0.0787399 0.978454
-116.667 -106.595 2707.69 -0.537203 0.711075 -0.453635
-26.3641 182.493 2546.38 0.815681 -0.310542 -0.488086
-21.4468 -133.788 2546.38 0.284216 0.462816 0.839656
-351.712 -300.541 2695.5 -0.448766 -0.813603 0.369675
-356.757 11.1712 2695.5 -0.034352 0.264758 0.963703
-418.12 -273.504 2557.26 0.223901 -0.973788 -0.0400765
-421.001 25.3968 2557.26 0.985751 -0.107649 -0.129256
-352.054 -72.9246 2524.89 0.748585 0.160867 -0.643228
-547.663 -17.9439 2796.26 0.147605 -0.938925 -0.310858
63.3469 325.878 2442.45 0.0579854 -0.950682 -0.3047
233.463 -197.734 2683.41 0.892038 -0.235997 -0.385452
-10.5936 -335.342 2732.42 -0.0531061 0.299107 -0.952741
199.472 107.489 2636.12 0.83518 -0.0329118 -0.548991
283.548 237.419 2412.9 0.253499 0.224764 0.940861
-554.286 67.8571 2671.43 0.0895272 -0.179546 -0.979667
-551.429 -257.857 2671.43 0.754108 0.438566 0.488857
-101.342 -377.403 2590.48 0.218217 -0.165449 -0.961773
-158.428 -108.646 2613.1 0.747368 0.01969 -0.664118
-306.376 -9.78166 2613.1 0.400532 -0.814807 -0.419123
-51.7705 -212.552 2557.26 0.708264 0.464835 0.53131
-381.538 152.82 2557.26 0.26287 -0.774228 0.575735
-66.4169 191.569 2452.46 0.137982 -0.701462 -0.699223
-270.215 -94.7639 2568.24 -0.308306 0.662225 -0.682939
-121.737 32.9972 2514.29 0.851214 0.218534 0.477156
-306.606 -287.421 2707.69 -0.101325 0.0730043 0.992171
334.182 -101.091 2720 0.920245 -0.169929 -0.352525
348.364 -252.364 2720 -2.33183e-12 1.14495e-12 1
-565.96 27.4705 2695.5 0.879584 0.326493 0.346028
-261.631 -94.7639 2568.24 -0.317692 -0.942743 0.10153
-442.714 97 2671.43 -0.161957 -0.22387 -0.961068
-421.643 263.341 2365.22 -0.129946 0.0578897 0.98983
-56.7273 -353.455 2720 -0.390034 0.326797 0.860858
-251.817 -97.465 2579.31 0.427485 0.880937 -0.202993
-206.594 -152.514 2568.24 -0.259242 -0.173336 0.950131
-281.888 -367.519 2568.24 0.0235401 -0.497647 -0.86706
-516.611 -88.3884 2472.73 0.940791 -0.148623 0.30467
-571.063 -252.735 2671.43 -0.64732 -0.157656 -0.745736
-486.695 250.377 2503.77 -0.0494123 0.440609 0.896338
-302 -339.035 2579.31 -0.0320272 0.748438 0.662431
197.667 -168.362 2568.24 0.787019 -0.102465 -0.60836
-381.345 -3.2287 2683.41 -0.282182 0.586884 0.758908
-376.323 -344.036 2683.41 0.272371 0.925978 -0.261494
201.373 -189.185 2568.24 0.855432 -0.0146894 -0.517707
-517.566 -82.3441 2472.73 0.949837 -0.106456 0.294071
-216.555 -96.8074 2613.1 -0.229504 -0.924384 0.3047
-549.643 70 2671.43 0.412432 -0.0616861 -0.908898
-38.4549 76.9099 2568.24 0.458463 0.574893 0.677724
318.545 -277.818 2720 -0.103377 -0.0826544 0.991202
-283.319 -9.78166 2613.1 -0.0088591 -0.89921 -0.437427
-211.354 -96.4192 2613.1 -0.39606 -0.825574 0.40195
-196.732 -326.947 2659.56 0.937408 -0.20614 -0.280664
-203.022 14.2222 2659.56 0.601862 -0.451408 -0.658781
187.884 -392.491 2732.42 0.250157 -0.19788 0.947768
-136.081 -278.009 2707.69 0.913169 0.120824 0.389261
-376.652 -108.498 2568.24 0.13141 0.953929 0.269723
-206.332 -97.9039 2613.1 -0.295414 -0.933856 0.201603
-172.065 -98.5425 2624.56 -0.155898 -0.975254 0.156768
-420.904 -8.25397 2557.26 0.775057 -0.630072 -0.0479181
-445.022 71.6883 2590.48 0.848032 -0.270126 0.455931
-156.364 -100.727 2720 0.13096 0.678104 -0.723205
-365.188 -125.858 2503.77 -0.404433 0.203132 -0.891724
393.484 -351.855 2707.69 0.418654 -0.0389012 0.907312
18.3051 -267.797 2535.59 0.0819042 0.481132 0.872814
308.434 276.691 2403.21 0.402346 0.0268825 0.915093
-151.496 -101.035 2720 0.173222 0.468548 -0.866289
-251.864 183.051 2535.59 0.116572 0.507045 0.854
-481.429 -110.714 2671.43 0.493288 0.112551 -0.862554
-26.9091 -342.4 2720 -0.0559421 0.0553319 0.9969
303.293 123.374 2403.21 0.390169 0.10271 0.914997
-126.667 -139.298 2624.56 -0.158305 -0.637823 0.753738
-241.613 194.516 2412.9 -0.173642 -0.732179 -0.658607
-86.6514 -94.324 2546.38 -0.373893 0.38695 -0.842896
188.216 297.095 2482.99 0.859906 0.199242 0.469963
-132.727 -251.636 2720 -0.387696 -0.0657864 -0.919437
-152 -132.364 2720 0.131168 -0.0655517 0.98919
273.226 237.419 2412.9 0.0816615 -0.0765384 0.993717
223.58 263.418 2422.67 0.296714 0.245989 0.922741
405.845 -344.11 2732.42 0.297143 0.183905 -0.936955
-275.902 267.295 2452.46 0.854959 0.192076 0.481822
23.3238 67.515 2557.26 0.212808 -0.441208 0.871807
298.208 88.4827 2412.9 0.57767 -0.471297 0.666465
-92.7197 111.13 2503.77 0.0709979 0.0649647 0.995359
-252.21 212.328 2432.52 0.398454 0.404491 0.823178
-391.951 -306.847 2647.79 0.722569 -0.168315 -0.670495
-396.61 -258.983 2535.59 0.181001 -0.974329 -0.133872
43.8204 218.057 2442.45 0.998042 -0.0486179 0.0393523
28.4746 -172.542 2535.59 0.0636129 -0.0139197 0.997878
-341.233 -212.661 2514.29 0.814339 -0.416964 -0.403724
-406.293 -303.088 2647.79 -0.427887 -0.486517 0.761718
-251.383 46.0395 2601.74 0.810843 0.0261289 0.584681
-391.803 183.06 2452.46 -0.1413 -0.20255 -0.969024
-226.549 83.0089 2647.79 0.682446 0.39767 -0.613291
173.878 161.959 2442.45 0.267747 0.633471 0.725966
-246.504 237.202 2403.21 0.255542 -0.0667148 0.964493
-116.383 247.175 2412.9 -0.285153 0.0708263 0.955862
-21.8788 -377.535 2720 -0.171053 0.124143 0.977409
18.1974 151.988 2568.24 0.652108 0.752079 0.0955604
203.13 87.4709 2647.79 -0.553939 0.0207043 0.8323
118.468 168.851 2546.38 -0.0124792 -0.970276 0.24168
48.3404 -263.829 2546.38 -0.0449851 0.319152 0.946635
-401.37 -32.1565 2683.41 0.113035 -0.595182 -0.795601
-101.763 292.48 2422.67 -0.19393 -0.196145 0.961207
43.4286 52.4904 2546.38 0.261428 0.0223986 0.964963
348.364 -267.636 2720 0.0862423 0.0359545 0.995625
-316.522 22.2609 2601.74 0.0952048 0.15729 0.982953
-461.622 -372.613 2695.5 -0.164169 0.0397561 0.985631
43.1436 322.804 2432.52 0.84157 -0.288454 -0.456677
-399.9 -328.622 2624.56 -0.58499 -0.791821 0.175518
398.642 -207.402 2720 5.76524e-12 9.71853e-13 1
-221.834 -90.8297 2613.1 -0.0820888 -0.835138 0.54388
129.931 -91.7421 2462.55 0.700636 0.127539 -0.702028
298.211 11.7073 2432.52 -0.116358 -0.659501 -0.742643
-266.897 -342.759 2579.31 0.0212721 0.496841 0.867581
-6.54545 -362.546 2720 -0.0264665 0.14398 0.989227
-41.8727 172.341 2514.29 0.82005 -0.286516 -0.495406
-296.667 268.222 2493.33 0.086032 0.605756 0.790985
190.345 -95.1724 2579.31 0.537908 0.179999 -0.823563
-461.103 -272.773 2503.77 -0.122144 -0.535146 -0.835883
-521.429 37.1429 2671.43 -0.0815859 0.0305981 0.996197
-515.887 -193.202 2671.43 0.99634 0.0814239 -0.0260281
-211.556 156.088 2659.56 -0.0292679 -0.0358549 0.998928
-21.6129 331.742 2412.9 0.0304256 -0.980649 -0.193396
198.276 -97.5862 2579.31 -0.353878 -0.0726388 0.932467
278.387 101.774 2412.9 0.0947282 -0.995407 -0.0138058
-356.543 308.477 2462.55 0.0418727 0.984653 0.169425
221.379 -96.5517 2579.31 -0.465143 0.212242 0.859416
-585.54 172.77 2809.39 0.852889 -0.490859 0.177871
227.399 -98.0353 2590.48 0.850927 -0.247409 -0.46337
-102.05 -67.7233 2707.69 -0.558003 -0.799219 -0.22334
-157.795 52.3378 2659.56 0.954016 -0.176462 -0.242309
-131.208 -342.763 2601.74 -0.357658 0.0532902 -0.932331
-13.4468 -100.425 2546.38 0.388776 0.0163736 0.921187
-106.867 -147.92 2624.56 -0.230723 -0.916687 0.326268
-506.429 125.715 2671.43 0.118424 -0.15436 -0.980892
-281.629 -186.606 2707.69 0.343792 -0.252544 -0.904449
-501.429 -197.143 2671.43 -0.062395 -0.0715966 0.99548
113.145 -227.326 2535.59 -0.000364379 0.173533 0.984828
-446.609 12.5217 2601.74 0.369157 -0.889115 0.27055
243.636 -282.182 2720 -0.0835324 0.0312897 0.996014
-441.739 -311.931 2601.74 -0.490225 -0.647826 -0.583097
-590.423 175.775 2809.39 0.852889 -0.490859 0.177871
-458.407 272.693 2452.46 -0.694414 0.0394647 -0.718493
28.2553 -12.5958 2546.38 -0.108774 -0.335426 0.935766
-256.652 -270.769 2707.69 -0.524028 0.851511 0.0179776
28.4588 302.306 2412.9 -0.0942412 -0.0403419 -0.994732
-158.08 127.431 2659.56 0.472114 -0.486254 0.7353
-14.5454 138.181 2590.48 0.0776356 0.42747 -0.90069
-491.473 32.0982 2671.43 -0.108227 0.0674808 0.991833
-541.403 167.801 2659.56 0.776915 0.626858 0.0587524
-246.747 231.968 2403.21 -0.224427 0.0316217 -0.973978
243.563 182.436 2422.67 -0.0768774 0.995695 0.0517908
-371.472 -337.792 2590.48 -0.222987 -0.857838 -0.463023
23.1405 -387.967 2720 -0.109492 -0.104513 0.988478
-291.784 107.692 2482.99 0.984362 0.168235 0.0522351
158.548 216.847 2482.99 -0.059992 0.116367 0.991393
-6.77966 -177.627 2535.59 0.106852 -0.0354809 0.993642
321.747 -96.4192 2613.1 0.0242947 -0.480547 -0.876632
-476.429 -159.643 2671.43 -0.0761803 0.359218 -0.930139
68.3636 -367.091 2720 0.0107187 0.00501325 0.99993
288.186 112.211 2422.67 0.0951576 0.232856 0.967845
-541.269 -297.788 2683.41 -0.104156 -0.109887 0.988472
-511.535 262.905 2482.99 -0.062867 -0.0123153 0.997946
-201.333 191.941 2659.56 -0.483983 0.359099 0.798003
-516.429 67.1429 2671.43 -0.14291 -0.00239946 0.989733
-401.495 87.5735 2683.41 0.188122 0.394224 0.899554
-596.432 -104.413 2809.39 0 0 1
228.693 122.841 2422.67 0.825278 -0.101641 0.555505
97.9964 183.237 2482.99 -0.307434 0.640548 0.703692
-456.601 338.972 2365.22 -0.0419383 -0.963102 -0.265849
-566.457 -99.7309 2683.41 0.889173 -0.0739133 0.451562
-151.616 -387.423 2613.1 -0.0927663 0.90391 0.417541
303.158 211.174 2422.67 0.156738 -0.0359864 0.986984
-206.578 67.0222 2659.56 -0.477871 -0.127942 0.869063
58.1818 -347.636 2720 -0.00671015 0.212229 0.977197
-496.721 -92.2404 2452.46 0.0950267 0.00460217 0.995464
-527.719 331.93 2624.56 0.510876 -0.801563 0.310649
-491.684 -92.31 2452.46 -0.015415 -0.0692722 0.997479
-321.302 57.7243 2601.74 -0.45032 -0.0151111 -0.892739
19.1093 322.375 2422.67 0.851813 0.126029 0.50846
383.571 -127.857 2671.43 -0.153371 -0.00555848 0.988153
-296.569 257.406 2503.77 0.0843516 0.434882 0.896528
388.364 -222.545 2720 -2.18328e-12 3.88019e-14 1
-231.788 -307.668 2568.24 0.442877 -0.0441592 0.895494
-281.724 -98.2758 2579.31 0.0146526 0.0544467 0.998409
