ply
format ascii 1.0
comment Created by Open3D
element vertex 901
property double x
property double y
property double z
property double nx
property double ny
property double nz
end_header
-296.569 248.368 2503.77 0.0989854 0.514848 0.851548
13.4375 344.375 2337.5 0.000157837 0.993945 0.109878
-51.6364 -302.545 2720 -0.354938 0.0474227 0.933686
-61.7143 307.265 2442.45 0.104108 0.143697 -0.98413
-582.584 355.215 2863.16 0.588936 0.776734 0.223247
-421.513 179.496 2514.29 0.0935893 -0.991311 -0.0924325
58.5068 302.904 2462.55 -0.538585 0.20463 0.817345
-81.6 334.08 2393.6 -0.00338022 -0.97629 -0.216439
-56.4706 66.8907 2514.29 0.69759 -0.310874 -0.645544
98.383 -27.5744 2546.38 1.69792e-12 -9.4398e-13 1
23.3898 -127.458 2535.59 -1.3059e-13 6.05482e-13 1
167.825 123.053 2524.89 0.910385 -0.322526 -0.259182
258.347 112.217 2422.67 -0.021586 -0.358928 0.933116
-36.4255 -133.447 2546.38 -0.394141 -0.672762 -0.626135
273.538 307.708 2403.21 -0.322574 0.496789 -0.805696
263.418 237.458 2422.67 0.768134 -0.58306 0.264596
-216.917 341.186 2365.22 -0.00294748 -0.983608 -0.180295
-120.902 107.882 2493.33 0.314713 0.0844211 0.945425
-251.93 58.2456 2624.56 0.571175 -0.74791 0.338216
-259.555 -59.0222 2659.56 -0.52634 0.508145 -0.681729
-333.63 -9.00741 2659.56 0.98517 -0.0195907 0.170458
43.6364 -318.545 2720 0.0611062 -0.156596 -0.985771
208.395 253.498 2462.55 -0.653949 -0.660197 -0.369447
-79.3277 20.8404 2514.29 0.759488 -0.216306 -0.613506
73.1984 331.012 2422.67 0.0524749 -0.947512 -0.315385
-351.373 344.157 2346.67 -0.00139664 0.971382 0.237517
-411.799 253.564 2365.22 -0.0634141 -0.183231 -0.981022
-56.8326 -323.62 2707.69 0.875262 0.453445 -0.168235
-301.667 263.333 2493.33 0.127812 0.470746 0.872962
278.539 7.72947 2659.56 -0.0696346 0.0156629 0.99745
60.4878 253.008 2432.52 -0.363519 -0.652536 0.664869
38.1197 67.0726 2557.26 0.616113 -0.274788 0.738171
313.574 182.811 2403.21 0.0760793 0.0722112 0.994484
298.182 -397.818 2720 -7.23932e-13 3.63081e-12 -1
-435.307 152.851 2546.38 -0.490791 0.192226 -0.849808
-441.25 60.8929 2671.43 0.0293846 0.996228 -0.0816459
293.226 296.129 2412.9 0.273805 0.179785 0.944833
-461.156 73.2444 2659.56 0.390341 -0.151596 0.908104
337.814 222.186 2422.67 -0.344611 -0.154002 -0.926027
-589.862 -232.995 2757.6 2.61433e-10 2.83983e-11 -1
213.464 123.707 2432.52 0.843526 0.105027 0.526719
173.543 342.992 2355.91 -0.0167035 -0.981893 -0.1887
-281.605 292.972 2482.99 0.673327 0.507214 0.537927
288.387 207.204 2412.9 0.48301 -0.189017 0.85497
133.223 287.603 2472.73 -0.292556 -0.172924 0.940483
-356.639 242.521 2514.29 0.169414 -0.40702 -0.897571
-410.573 -276.3 2636.12 0.438951 -0.639352 -0.631309
-31.5152 89.0043 2590.48 0.052879 0.0989384 -0.993688
-316.735 122.449 2442.45 0.434836 0.414089 -0.799655
-463.39 -224.407 2535.59 -0.652963 -0.756329 -0.0400774
-6.42571 333.012 2403.21 0.00631347 -0.978602 -0.205663
278.413 338.836 2374.6 0.00468816 -0.965947 -0.258699
-31.5625 345.312 2337.5 0.0014409 0.992589 0.12151
-536.727 -47.2727 2720 0.415855 -0.901579 -0.119244
283.401 202.105 2422.67 0.427867 0.225348 0.875299
243.274 192 2432.52 0.0618975 0.177198 0.982227
-146.667 326.721 2432.52 -0.0116523 0.45718 -0.889298
-71.5447 312.065 2432.52 -0.0206352 -0.0470651 0.998679
155.185 68.6687 2546.38 0.89799 0.000496842 -0.440015
-128.205 56.7522 2557.26 0.97537 0.215881 0.0452512
-56.4706 345.098 2346.67 -0.00157055 -0.986887 -0.161406
-264.715 204.878 2432.52 0.711122 0.218009 0.668414
-521.429 181.667 2671.43 0.230833 -0.191191 0.954024
-516.143 -16.9762 2671.43 -0.167629 0.0927393 0.981478
113.466 334.661 2384.06 -0.00838749 -0.98445 -0.175464
83.4655 308.356 2462.55 0.535077 -0.596512 -0.59822
-516.951 -382.661 2683.41 -0.0148595 0.0448206 0.998885
-226.667 -297.436 2557.26 0.131109 -0.0942348 0.986879
-531.721 -32.7442 2783.26 0.227939 0.910132 -0.345982
-451.695 337.702 2374.6 0.0845817 0.903601 0.419942
118.387 332.581 2412.9 0.00225437 -0.978712 -0.205224
73.28 334.72 2393.6 -0.00190864 -0.986527 -0.163588
-441.423 292.806 2365.22 0.301204 -0.158038 0.940372
-311.843 344.157 2346.67 -0.00515458 0.980565 0.196126
-386.84 -356.363 2590.48 0.727451 -0.338949 0.596598
-46.9412 153.227 2514.29 -0.657218 0.35162 0.666654
-201.613 329.355 2412.9 0.00167606 0.707019 0.707193
-370.667 302.732 2452.46 0.732024 0.265309 -0.627497
-431.762 257.409 2432.52 -0.216454 0.170178 -0.961346
288.364 -292.364 2720 7.38377e-12 1.14388e-12 1
-491.674 169.614 2568.24 -0.17874 0.968515 0.173296
193.347 237.327 2482.99 -0.131524 0.150782 0.979779
73.276 342.472 2355.91 0.0116814 -0.98457 -0.174599
-96.7686 -2.09607 2613.1 0.0193853 0.990961 0.132742
-611.122 -38.2439 2919.02 0.763993 -0.484023 0.426657
-406.638 -355.633 2613.1 -0.0734756 -0.941304 -0.329466
223.415 172.683 2432.52 0.121333 -0.188029 0.97464
-426.751 -203.388 2647.79 0.984604 -0.17112 -0.035675
288.514 142.522 2403.21 -0.113279 0.0182129 0.993396
-166.112 188.429 2568.24 0.992297 0.0406882 0.117009
-176.452 329.354 2412.9 -0.0438098 0.662839 0.747479
224.865 -168.649 2695.5 0.9221 0.241273 -0.30252
-171.636 -252.364 2720 -0.00285453 0.12386 0.992296
-176.909 72.4545 2720 0.217289 0.0925076 0.971714
8.51064 -267.574 2546.38 0.26054 0.0954547 0.960733
183.236 303.734 2482.99 -0.0412858 0.0564311 -0.997553
8.34415 122.2 2568.24 0.914147 0.0927324 0.394633
-201.767 257.349 2403.21 -0.0874493 0.105328 0.990585
323.656 261.032 2412.9 0.00667288 0.522048 0.85289
-546.789 -187.89 2744.95 -0.0149534 0.990312 -0.138052
138.353 345.725 2346.67 -0.0212825 0.989356 0.143953
408.364 -332.364 2720 -4.21412e-12 -7.37778e-13 -1
-471.489 175.66 2546.38 -0.170977 -0.983507 -0.0589974
228.058 271.714 2432.52 0.381468 0.425431 0.820665
-56.6957 -262.145 2601.74 0.123719 0.267316 0.955634
348.571 -77.8571 2671.43 -0.0675162 -0.00102659 0.997718
-406.838 161.14 2557.26 0.103146 -0.356218 -0.928692
-36.3636 -347.636 2720 -0.1798 0.0383657 0.982955
-271.428 340.635 2374.6 -0.00100523 -0.976939 -0.213516
213.333 182.439 2432.52 0.00208935 0.0703241 0.997522
-211.681 183.186 2647.79 0.32047 0.0138091 -0.947158
48.2645 183.14 2472.73 0.169649 0.653122 0.738005
-56.8254 338.731 2374.6 -0.00567961 -0.981179 -0.193018
-21.6393 301.967 2452.46 -0.0338736 0.208704 -0.977392
-456.601 273.202 2365.22 -0.225446 0.133461 -0.965071
-111.667 132.333 2493.33 0.194677 0.0976584 0.975994
-152.203 162.034 2535.59 0.985671 0.141438 0.0919172
193.455 -317.818 2720 1.12013e-12 1.39742e-14 1
148.346 345.197 2355.91 0.0060683 -0.984027 -0.177914
-181.741 122.207 2659.56 -0.1809 0.285428 -0.941173
-373.755 300.395 2365.22 0.1058 0.115979 -0.987601
-366.637 -17.2197 2683.41 0.0140714 -0.0156157 0.999779
-157.386 -186.137 2683.41 0.830939 0.459273 0.31402
-106.559 328.745 2422.67 0.0266657 -0.868847 -0.494363
-247.554 113.991 2568.24 -0.104428 -0.35872 -0.927586
-386.557 212.459 2452.46 -0.00938119 0.421739 0.906669
193.6 334.4 2393.6 0.00279145 -0.984457 -0.175602
313.28 337.28 2393.6 0.0371549 0.902445 0.4292
-291.263 -162.733 2707.69 -0.0644025 -0.0797073 0.994736
-71.68 334.08 2393.6 5.11996e-05 -0.974967 -0.222351
-306.555 227.611 2514.29 -0.0316952 0.480962 0.876168
-21.502 339.605 2365.22 6.5726e-05 -0.984811 -0.173632
-381.818 -7.92208 2671.43 0.250008 -0.726823 -0.639706
169.145 -199.401 2557.26 -0.475642 0.24254 0.845541
108.178 57.3279 2422.67 -1.21506e-12 -9.52594e-13 1
-216.637 102.797 2647.79 -0.169734 0.191537 0.966697
98.4616 331.012 2422.67 0.00874371 -0.967211 -0.253822
103.32 42.568 2422.67 -0.0308212 0.010741 -0.999467
-31.5447 317.008 2432.52 0.0257302 0.465746 0.884544
-86.5625 344.375 2337.5 0.0101222 0.991245 0.131647
-295.638 107.325 2462.55 0.236916 -0.0703316 -0.968981
-301.538 -193.158 2707.69 -0.148656 0.168983 0.974344
228.433 137.667 2422.67 0.137671 -0.0103108 0.990424
-191.644 157.156 2659.56 -0.0820086 -0.0865672 0.992865
-35.4793 82.8612 2568.24 -0.217808 -0.905223 -0.36487
43.234 112.34 2546.38 0.41265 -0.00468822 0.910878
113.6 334.72 2393.6 0.00119148 -0.992844 -0.119416
-101.565 -233.043 2601.74 -0.0890291 0.128409 0.987717
207.514 -43.3674 2568.24 -0.495732 -0.155963 0.854357
-441.739 171.826 2601.74 -0.232761 -0.967168 0.102021
-436.87 -207.652 2601.74 -0.19787 0.0255935 0.979894
183.471 252.892 2472.73 0.029227 0.146786 0.988736
-222.266 -122.693 2579.31 0.0972366 0.801317 -0.590284
-505.664 213.835 2624.56 0.934242 0.345914 0.0868073
208.047 322.892 2442.45 0.452727 0.449017 0.770339
128.495 212.56 2462.55 0.582825 -0.229598 -0.779487
-230.714 -15 2671.43 0.224316 -0.966945 -0.121241
-286.811 22.4853 2601.74 0.789641 0.550572 0.27081
108.43 257.41 2472.73 -0.256429 -0.166268 0.952155
303.375 267.712 2403.21 0.129972 0.444993 0.886052
183.279 325.246 2452.46 -0.151326 -0.955976 -0.251416
163.279 323.934 2452.46 0.0251866 -0.910162 -0.413486
223.401 247.307 2452.46 0.907839 0.132281 0.397908
-446.609 -207.652 2601.74 0.0181867 -0.120581 0.992537
-276.636 92.3307 2452.46 0.57671 0.2674 -0.771948
-205.31 43.3038 2647.79 0.65921 0.550603 -0.512132
148.382 299.087 2482.99 0.00669443 0.098215 0.995143
328.421 217.004 2422.67 0.0531145 -0.0617192 0.996679
238.38 82.2672 2422.67 -0.036989 -0.0790723 0.996182
-614.369 367.379 2904.85 0.912606 0.247337 0.325538
-441.89 342.992 2355.91 0.141509 0.962119 0.233028
-176.842 -126.316 2624.56 -0.0707644 -0.749006 -0.658774
78.2979 -244.426 2546.38 -0.222734 0.463619 0.857582
73.1915 82.383 2546.38 0.201006 -0.0229157 0.979322
-231.579 317.733 2422.67 0.144657 -0.583575 0.799071
222.885 119.082 2452.46 0.756734 0.172522 0.630548
-1.61943 328.745 2422.67 -0.0569512 -0.870459 -0.488936
-321.613 331.613 2412.9 0.00596391 -0.976167 -0.216939
-201.6 132.622 2659.56 -0.220639 -0.0648375 0.973198
-306.606 -272.217 2707.69 -0.179853 -0.00566474 0.983677
288.32 336.853 2393.6 0.0446281 0.90931 0.41372
-271.427 222.801 2442.45 -0.379709 0.13021 -0.915897
293.404 338.742 2374.6 0.00345451 -0.964061 -0.265659
-296.867 333.494 2403.21 0.000279595 -0.979684 -0.20055
-481.429 -190 2671.43 0.028624 -0.506402 0.861822
328.421 212.793 2422.67 0.0521872 -0.248945 0.967111
-486.429 126.429 2671.43 0.194622 0.0859321 0.977107
248.455 191.653 2432.52 0.030161 0.163621 0.986062
8.48979 250.449 2442.45 -0.0540447 0.51133 0.857683
-209.692 -332.687 2636.12 0.920529 -0.37398 -0.112984
-321.81 -317.828 2707.69 -0.122206 -0.00364784 0.992498
98.4375 345.312 2337.5 -0.00286046 0.98747 0.157781
-232.172 -324.601 2568.24 0.12993 0.299103 0.945334
-286.667 268.222 2493.33 -0.210855 -0.48593 -0.848182
18.4615 186.667 2557.26 -0.0837636 0.920581 -0.381463
-216.452 331.613 2412.9 -0.0849498 -0.806698 -0.584826
263.174 340.635 2374.6 0.00626517 -0.982452 -0.186409
68.3922 343.843 2346.67 0.0134593 -0.984762 -0.173384
103.39 -197.627 2535.59 -0.0926256 0.110954 0.9895
18.486 336.892 2384.06 -0.00214634 -0.984434 -0.175743
28.3871 141.727 2546.38 0.131911 -0.0262344 0.990914
-401.581 257.707 2365.22 -0.203331 -0.184232 -0.961621
68.4255 37.4468 2546.38 0.152299 0.10622 0.98261
73.1915 -267.574 2546.38 -0.0133437 0.358313 0.933506
-11.5625 345.312 2337.5 -0.00124942 0.993055 0.117648
273.414 142.522 2403.21 0.180955 0.0334665 0.982922
163.577 10.4065 2432.52 -0.0804092 0.36396 0.927937
-346.746 27.3443 2683.41 0.751901 -0.360663 0.551876
-486.478 112.043 2671.43 0.100068 -0.0169994 0.994835
-481.429 -210.714 2671.43 0.225937 -0.546232 0.806587
-262.008 247.51 2442.45 0.857503 -0.36034 0.36721
-366.784 166.493 2546.38 -0.274977 -0.71961 -0.637612
-171.654 342.677 2355.91 0.00139059 -0.984818 -0.173584
268.178 82.7531 2422.67 0.200033 0.112262 0.973337
-71.5625 345.312 2337.5 0.00413866 0.993692 0.112066
-141.293 146.759 2503.77 0.90074 0.155146 0.405705
-241.704 -213.192 2707.69 0.748089 0.134219 0.649883
398.545 -337.455 2720 -0 -0 1
-266.787 -202.715 2707.69 0.000893785 0.140462 0.990086
273.414 107.738 2403.21 0.0173878 0.235253 0.971779
8.04233 144.146 2590.48 -0.247343 0.0110922 -0.968865
-346.555 242.521 2514.29 -0.137516 0.545336 0.82686
138.56 336.427 2393.6 -0.0067321 -0.991083 -0.133074
-228.135 56.2691 2744.95 0.351195 0.936198 0.0139964
283.689 42.993 2422.67 0.277026 0.424536 0.861989
58.3607 323.607 2452.46 0.0836507 -0.990465 -0.109458
-236.452 202.473 2412.9 -0.0390689 -0.600747 -0.798484
33.4137 333.494 2403.21 0.0189812 -0.897116 -0.441388
83.5772 215.285 2432.52 0.0750819 -0.994664 0.0707552
253.388 257.088 2442.45 -0.365713 -0.438299 -0.821065
9.81252 102.354 2568.24 0.86396 0.128609 0.48686
8.45528 327.024 2432.52 -0.0486722 -0.943388 -0.328101
212.385 -126.663 2590.48 0.649377 -0.444204 -0.617246
98.4256 -77.5745 2546.38 -0.295829 -0.302497 0.90608
-514.191 273.527 2482.99 -0.105685 -0.638255 -0.762536
-376.666 312.942 2442.45 0.932068 0.148221 -0.330574
398.545 -162.545 2720 0.0162423 -0.00846233 0.999832
-471.701 313.361 2482.99 -0.288093 0.951059 0.111758
8.40364 127.532 2557.26 0.690576 0.519771 0.502934
-251.654 342.992 2355.91 -0.014753 -0.980354 -0.196694
-274.938 237.714 2442.45 0.96784 0.110941 0.225782
93.2766 -67.4043 2546.38 -0.122755 -0.19577 0.972936
193.166 137.367 2442.45 -0.223496 -0.801112 -0.55522
248.554 252.693 2432.52 0.323809 0.941601 -0.0923865
238.38 335.547 2422.67 0.0665427 0.831627 0.551334
40.339 143.051 2535.59 0.464148 0.126225 0.876717
-238.704 215.709 2422.67 0.601889 0.394972 0.694065
-176.727 -163.091 2720 -0.0954443 -0.208996 -0.973248
-511.803 229.508 2452.46 -0.111482 -0.869404 0.481362
-506.513 -87.2131 2452.46 -0.724485 -0.219138 -0.653529
-496.726 181.19 2671.43 -0.434358 -0.173508 -0.883871
-491.429 -142.381 2671.43 0.0782524 0.204242 0.975788
33.4426 227.541 2452.46 0.071535 -0.00939267 0.997394
-321.681 232.605 2514.29 -0.0129319 0.462075 0.886747
-271.724 -343.448 2579.31 0.118786 0.443117 0.888559
243.534 329.639 2403.21 0.104085 0.605092 0.789322
-241.416 -77.5221 2647.79 -0.243371 -0.425761 0.871492
-296.696 -98.7826 2601.74 0.012441 0.064041 -0.99787
70.8197 117.377 2452.46 0.627506 0.778612 0.000254899
-258.939 247.51 2442.45 0.852712 -0.182505 0.489463
10.2128 140.936 2546.38 0.480095 -0.168687 0.860845
223.415 22.5784 2432.52 0.0833011 -0.649019 0.756198
138.361 174.426 2452.46 0.174546 -0.863921 0.472414
297.986 317.496 2403.21 0.185657 0.301151 0.935329
168.374 307.347 2462.55 -0.210314 -0.747163 -0.630488
-526.527 275.816 2503.77 -0.0937746 0.697305 -0.710614
40.8163 326.531 2442.45 -0.094725 0.94421 0.315428
-147.847 93.2153 2647.79 0.942586 -0.0770362 0.324956
-376.323 67.982 2683.41 -0.0920267 -0.0101609 0.995705
-86.5883 345.098 2346.67 -0.0129821 -0.985904 -0.166807
206.58 -158.095 2590.48 0.883714 -0.0182233 -0.467672
-331.765 237.311 2514.29 0.0272924 0.324192 0.945598
318.545 -337.455 2720 4.5466e-12 1.26082e-13 1
-52.6667 164.667 2493.33 -0.567568 0.147467 0.810013
-431.597 -231.933 2514.29 0.0520494 -0.939753 -0.337869
-291.604 207.885 2524.89 0.0151766 0.670657 0.741613
298.471 82.3562 2412.9 0.297759 -0.268282 0.916168
-281.629 -247.602 2707.69 -1.24061e-12 -1.11009e-12 1
-21.6949 -112.655 2535.59 0.159466 -0.184727 0.969766
-171.636 -392.727 2720 0.176949 -0.0562283 0.982612
283.571 228.221 2422.67 0.478326 -0.221531 0.849781
-354.389 -254.842 2707.69 -0.547756 0.394101 0.738003
-367.229 325.783 2403.21 0.213617 -0.938761 -0.270363
-21.1111 134.188 2557.26 0.789591 -0.535178 -0.300218
-496.825 341.587 2374.6 -0.0943479 -0.96643 -0.238981
1.03896 83.8095 2590.48 0.366886 -0.0155339 0.930136
-1.6129 329.677 2412.9 0.0019818 -0.927631 -0.373494
-481.908 178.434 2613.1 -0.649397 0.702012 -0.29234
-476.429 137.429 2671.43 0.213571 -0.437329 -0.873574
-471.143 -189.643 2671.43 -0.287273 0.367835 -0.884405
-381.913 -98.4348 2601.74 -0.105179 0.769221 -0.630267
263.32 267.53 2422.67 0.414324 0.469332 0.779784
163.636 -337.455 2720 -1.18113e-12 2.39526e-12 1
-364.984 258.23 2452.46 0.531415 0.0438203 -0.845978
-91.6535 342.52 2355.91 -0.00590069 -0.985636 -0.168779
-261.789 323.686 2432.52 0.471676 0.487099 0.735021
23.5102 269.714 2442.45 0.127344 -0.406432 0.904763
-106.877 339.605 2365.22 -0.000138903 -0.983614 -0.180289
-471.008 320.925 2472.73 -0.0739058 -0.961943 -0.263065
273.36 247.838 2422.67 -0.508866 0.154876 -0.846799
263.32 112.065 2422.67 0.0880189 0.0153398 0.996001
223.363 67.2566 2647.79 -8.61528e-12 -4.6729e-13 1
-306.441 182.486 2535.59 -0.0783079 0.536083 0.840525
149.789 183.981 2452.46 0.410314 -0.821498 0.395959
-211.654 342.677 2355.91 -0.00235864 -0.984681 -0.17435
-46.5256 338.554 2374.6 -0.00717999 -0.981553 -0.191057
-296.388 -65.9031 2636.12 0.312995 0.923949 -0.219893
68.9546 147.277 2422.67 -0.514077 -0.141541 -0.845985
-16.8254 338.413 2374.6 0.00137177 -0.982654 -0.185441
-247.254 -3.39327 2482.99 0.852623 0.52129 -0.0359134
298.387 217.097 2412.9 0.117618 -0.534747 0.836786
208.708 138.826 2432.52 -0.540819 -0.782902 -0.307538
243.451 345.725 2346.67 0.00132018 0.983857 0.178951
-351.724 92.4138 2579.31 -0.146256 -0.272104 -0.951088
-361.545 -120.172 2568.24 0.0428495 -0.872688 0.486395
-91.9698 345.339 2346.67 -0.013348 -0.985203 -0.170869
-256.916 -85.2863 2636.12 -0.205104 -0.826573 0.524127
-481.36 176.886 2624.56 0.71837 -0.680563 0.144146
-306.441 179.661 2535.59 -0.0815076 0.515759 0.852848
153.171 -137.561 2432.52 0.00610505 -0.176317 0.984314
-471.77 313.416 2462.55 -0.562484 -0.784694 -0.260513
48.9618 298.288 2452.46 0.980025 0.17511 -0.0942715
248.364 -227.636 2720 -0.0406637 0.0662919 0.996971
168.454 -197.068 2546.38 -0.296909 0.0858376 0.95104
57.2358 292.683 2432.52 0.884067 -0.0381702 -0.465799
-150.476 -192.857 2671.43 0.882384 0.435234 0.178801
248.421 298.623 2422.67 0.209361 0.202482 0.956645
-406.614 337.323 2355.91 -0.169063 0.419181 0.892023
-326.695 252.385 2503.77 0.00104839 0.315433 0.948947
43.4286 326.531 2442.45 -0.452683 0.793793 0.406166
249.032 95.4839 2412.9 0.559423 0.180884 0.808905
-376.681 -22.34 2683.41 0.0132563 -0.106652 0.994208
-361.545 -119.485 2568.24 0.000414774 -0.872208 0.489134
-376.435 187.467 2432.52 0.164573 0.616661 -0.769835
-356.87 -166.609 2601.74 -0.420051 -0.831976 0.362454
-86.5625 345.312 2337.5 0.0101222 0.991245 0.131647
128.197 325.246 2452.46 0.069195 -0.954454 -0.290223
33.0884 248.308 2442.45 -0.0711324 -0.896753 -0.436778
230.128 -22.6549 2647.79 -0.301291 -0.168851 0.938463
-106.559 267.53 2422.67 -0.268088 -0.0222219 0.963138
-337.211 -192.385 2503.77 0.136815 0.110604 -0.984402
-411.48 67.4439 2683.41 -0.118766 0.191763 0.974229
-331.715 239.665 2503.77 0.00538953 0.513328 0.858176
-361.973 26.1883 2683.41 0.0851666 -0.736691 0.670845
-539.193 116.951 2683.41 0.765023 -0.186054 0.616542
-221.687 297.639 2403.21 -0.00309516 -0.438873 0.898544
18.1974 140.773 2568.24 0.332102 0.301035 0.893916
-96.7686 -287.162 2613.1 0.00599808 -0.144572 0.989476
-291.548 40.1674 2503.77 0.739887 0.622845 0.254229
-20.9687 185.527 2557.26 -0.156807 0.949004 0.2735
138.327 337.53 2384.06 0.0085281 -0.981202 -0.192797
-211.902 186.593 2647.79 0.0735755 -0.219483 -0.972838
114.146 171.057 2432.52 -0.450111 -0.653065 0.60902
173.333 6.50407 2432.52 -0.00464762 0.0706555 0.99749
308.387 242.304 2412.9 0.230866 0.101314 0.967696
-116.627 333.173 2403.21 -0.00193772 -0.980334 -0.197338
38.3735 252.617 2422.67 0.459882 0.572907 0.678444
233.628 82.4779 2647.79 8.46824e-12 3.0562e-12 -1
-96.2896 -88.3258 2707.69 0.825686 -0.49611 0.268547
-391.632 -213.556 2503.77 -0.317362 0.304254 -0.898171
103.512 113.041 2432.52 0.873293 0.392275 -0.28893
293.44 329.28 2393.6 0.0871445 0.335286 0.938077
263.548 210.968 2412.9 0.245487 -0.216855 0.944834
-496.529 282.314 2472.73 0.201323 0.663155 0.720899
-406.829 237.398 2432.52 -6.9912e-12 8.84527e-12 1
153.522 157.409 2422.67 0.193278 -0.53833 0.820271
-301.781 82.3508 2472.73 0.624706 0.463563 0.628372
48.3404 17.7021 2546.38 0.151564 -0.140019 0.97848
60.9053 183.704 2462.55 0.345362 0.582908 0.735489
-586.419 163.349 2783.26 0.906163 -0.162769 0.390352
-416.126 311.621 2365.22 -0.272573 0.256175 0.927404
203.492 339.365 2374.6 0.00692273 -0.978657 -0.205386
-1.417 314.373 2422.67 0.178229 0.508446 0.842447
240 -146.845 2659.56 -0.421055 -0.107148 0.900684
-296.471 -172.549 2707.69 0.136535 -0.0859012 0.986904
63.3469 325.878 2442.45 -0.0196073 -0.99773 -0.0644177
-311.51 112.653 2442.45 0.379562 0.361532 -0.851603
-61.6871 -193.296 2557.26 0.845574 0.377732 0.377258
163.319 287.137 2482.99 -0.0463654 0.0925852 0.994625
-26.5587 330.364 2422.67 0.00228397 -0.913253 -0.407387
-382.217 177.444 2535.59 -0.15209 -0.961359 -0.229473
-106.667 -236.257 2624.56 0.187196 0.299218 0.935642
248.455 226.862 2432.52 0.301846 -0.19116 0.933995
218.528 -112.554 2590.48 -0.462468 0.44271 0.7682
123.655 157.957 2442.45 -0.184897 -0.0461894 0.981672
118.204 325.878 2442.45 0.105261 -0.837768 -0.535784
73.4694 325.878 2442.45 0.0690247 -0.888318 -0.454012
-514.286 -20.7143 2671.43 0.0671024 -0.06964 -0.995313
-521.429 187 2671.43 0.127105 -0.194609 0.972611
-441.558 -328.312 2590.48 -0.470865 -0.181252 -0.863385
-446.696 -10.7937 2590.48 -0.645506 0.171526 -0.744245
-51.7705 -212.552 2557.26 0.727526 0.374767 0.574678
143.548 332.581 2412.9 -0.00124239 -0.982804 -0.184646
-236.452 312.581 2412.9 0.118019 -0.494817 0.860946
333.333 177.561 2432.52 0.169396 -0.111062 -0.97927
-376.565 203.177 2442.45 -0.0213682 0.381609 0.924077
-36.6534 336.574 2384.06 -0.00322434 -0.979664 -0.200617
-311.843 345.725 2346.67 -0.00515458 0.980565 0.196126
-519.457 129.231 2707.69 -0.323322 0.941694 -0.0931393
-387.659 -298.188 2683.41 0.982757 0.112072 -0.147068
-395.543 337.798 2365.22 0.669709 0.0296471 -0.742032
-391.39 16.9327 2683.41 -0.045706 -0.0611477 0.997082
-66.7207 252.308 2422.67 -0.326212 0.0926722 0.940743
68.6838 -56.7923 2546.38 -0.359928 -0.220874 0.906458
-122.15 -247.144 2659.56 0.966613 0.0915178 0.23934
68.3401 331.012 2422.67 0.040498 -0.925653 -0.3762
-477.533 169.163 2636.12 0.987084 -0.151017 -0.0534783
63.3469 322.938 2442.45 0.0334058 -0.953917 -0.298204
220.26 -93.5065 2590.48 0.509919 -0.225435 -0.830158
118.413 340.635 2374.6 0.00533224 -0.974845 -0.222822
-364.082 287.673 2442.45 0.579086 -0.132522 -0.804424
-446.614 271.963 2355.91 -0.0855348 -0.0694817 -0.993909
-401.617 122.444 2671.43 -0.36784 -0.376019 0.850473
43.252 217.669 2432.52 0.904373 -0.127943 0.407113
203.294 344.157 2346.67 0.000437402 -0.983497 -0.180925
-81.6129 329.677 2412.9 -0.00773459 -0.97783 -0.209258
213.103 -102.759 2579.31 -0.397062 0.161691 0.903437
-521.887 -217.509 2535.59 0.686182 0.627174 0.368521
-571.435 -362.347 2683.41 -0.156481 0.0803549 -0.984407
-351.152 200.949 2535.59 0.275616 -0.218667 -0.936066
-51.7487 272.485 2432.52 -0.154565 -0.0653601 0.985818
-256.552 -128.966 2579.31 0.0505421 -0.435092 0.898966
233.469 252.268 2442.45 -0.538962 -0.304014 -0.785554
-86.7742 329.677 2412.9 -0.000603811 -0.977615 -0.210401
-536.74 320 2636.12 0.406909 -0.857469 0.314917
-447.037 218.008 2442.45 0.433361 0.42097 0.796858
13.5935 268.618 2432.52 0.133273 -0.59201 0.794835
-281.639 321.639 2452.46 -0.00561679 -0.990523 -0.137231
223.307 342.992 2355.91 -0.00201694 -0.983865 -0.178902
138.175 -203.207 2535.59 0.160827 -0.215899 -0.96308
-272.145 226.685 2442.45 -0.211141 0.0235717 -0.977171
83.2922 250.206 2462.55 -0.196553 0.333368 0.922081
-156.856 -159.301 2613.1 -0.28657 0.118539 -0.950698
-426.718 342.385 2355.91 0.215048 0.738445 0.639104
-288.01 -13.4747 2613.1 0.0233224 -0.936923 -0.348757
-282.038 -326.987 2613.1 0.239503 -0.967666 -0.0791294
-206.463 -114.585 2613.1 0.875811 0.466237 0.124812
-406.161 88.2143 2671.43 0.332451 -0.67374 -0.659963
213.333 -121.905 2590.48 -0.527592 0.524052 0.668593
108.293 143.089 2432.52 0.772998 0.000969014 -0.634408
-422.567 -7.48991 2535.59 0.865933 0.0964278 -0.490777
-177.162 253.387 2403.21 -0.0948957 0.1418 0.985336
-287.087 -187.868 2695.5 0.321882 -0.5709 -0.755292
-422.555 -360.881 2636.12 -0.0531926 0.936444 0.346762
-26.3729 101.288 2535.59 -0.409414 0.337716 0.847542
-21.5819 -213.74 2535.59 0.0913184 -0.193144 0.976912
-438.385 -368.072 2683.41 0.820259 0.51051 0.257981
233.598 301.836 2412.9 0.667234 0.253307 0.700453
-451.542 338.972 2365.22 -0.118063 -0.97085 -0.208594
-191.724 -113.448 2579.31 -0.0169882 0.999832 0.00694083
-226.553 188.636 2422.67 0.0347378 0.857531 0.513258
-506.68 -239.242 2535.59 0.764233 -0.481787 0.428753
38.5216 306.982 2422.67 -0.628009 0.204126 0.750958
153.435 277.148 2472.73 0.340723 0.59114 -0.731069
-491.523 292.785 2462.55 -0.61141 0.549046 -0.569848
-1.62602 270.569 2432.52 -0.123312 -0.656399 0.744268
-186.559 193.522 2422.67 0.09561 -0.816682 -0.569113
258.182 -252.364 2720 2.44637e-12 1.17049e-12 1
178.182 -342.545 2720 2.96006e-19 -1.16447e-12 1
53.2258 232.58 2412.9 0.897325 0.201211 0.392837
298.353 345.725 2346.67 -0.00403415 0.988697 0.149874
223.45 113.324 2442.45 -0.144704 0.931643 -0.333319
108.178 331.012 2422.67 0.0118745 -0.968671 -0.248062
113.36 17.4899 2422.67 -0.0924731 0.0313296 0.995222
202.17 285.642 2462.55 0.855621 0.29381 0.426131
-381.49 344.157 2346.67 -0.142232 0.896551 0.419483
-133.094 -330.762 2683.41 0.977641 -0.185022 0.0999205
163.419 -242.735 2557.26 -0.280344 0.252287 0.926153
-141.66 339.605 2365.22 0.000280357 -0.9833 -0.181992
-221.562 345.312 2337.5 0.0147662 0.979166 0.202523
108.364 -322.546 2720 3.56736e-13 -2.50807e-14 -1
182.051 122.051 2557.26 0.936857 -0.192497 -0.291965
187.592 -202.574 2557.26 -0.661044 0.160767 0.732922
-141.613 227.419 2412.9 -0.297683 0.275899 0.913928
-292.721 121.115 2452.46 0.661769 0.589179 -0.463605
-101.659 -183.057 2613.1 0.770754 0.59124 0.237431
203.252 290.081 2432.52 0.80033 -0.132484 0.584739
218.211 182.439 2432.52 0.0520999 0.0483211 0.997472
8.45528 309.593 2432.52 0.430808 0.789878 0.43646
248.455 182.244 2432.52 -0.106623 0.132421 0.985442
-191.366 -92.8047 2636.12 0.205816 0.551207 -0.808585
-431.545 222.439 2432.52 0.143904 0.160791 0.976441
8.48979 322.775 2442.45 -0.223723 -0.128378 -0.966161
-91.6599 247.449 2422.67 -0.0804184 0.0834594 0.993261
104.607 92.1409 2432.52 -0.203744 -0.745177 0.63498
219.008 -192.739 2659.56 0.925294 -0.141886 -0.35171
-51.5625 344.375 2337.5 -0.000505575 0.993589 0.113047
-603.495 162.33 2904.85 0.940957 0.257057 0.220277
-171.613 268.602 2412.9 -0.082616 -0.12208 0.989076
-247.214 236.364 2412.9 0.825749 0.495132 0.270152
-31.5625 344.375 2337.5 0.0014409 0.992589 0.12151
73.1915 57.5805 2546.38 0.027712 -0.0680654 0.997296
78.2979 -257.021 2546.38 -0.104616 0.0798168 0.991305
-36.5625 345.312 2337.5 0.00187194 0.992809 0.119692
-411.48 -32.287 2683.41 -0.143358 -0.454424 -0.879174
-36.748 317.008 2432.52 -0.0480153 0.401245 0.914711
-11.6535 342.299 2355.91 0.00548193 -0.985769 -0.168016
-437.857 -395.714 2671.43 0.877452 0.293508 0.379382
-451.765 346.039 2346.67 0.0386086 0.98308 0.179059
-286.335 -297.557 2707.69 -0.0623173 -0.0132671 0.997968
-296.825 338.731 2374.6 0.000473506 -0.976799 -0.214158
-436.814 -315.044 2647.79 -0.00674425 -0.392707 0.919639
-212.164 153.145 2647.79 0.174403 -0.0556307 -0.983102
-411.574 167.149 2546.38 -0.00850671 0.705041 0.709115
-235.556 -77.7778 2671.43 -0.0503399 -0.974572 0.218346
-162.128 131.417 2613.1 0.0738968 -0.318302 -0.945105
288.364 -282.545 2720 5.68915e-12 -2.3612e-12 1
-430.409 -217.31 2624.56 0.92001 -0.241272 -0.30882
-211.354 -102.428 2613.1 -0.380444 -0.923253 0.0535392
363.571 -127.857 2671.43 -0.0772808 -0.0835534 0.993502
-461.513 -235.63 2514.29 0.0428046 -0.388493 0.920457
-50.5085 121.356 2535.59 0.948592 -0.269615 -0.165775
-266.308 -62.4614 2683.41 -0.0116683 -0.954266 0.298731
183.273 -392.727 2720 3.13618e-12 1.52545e-13 1
-231.611 172.743 2647.79 0.49336 -0.587249 -0.641666
-140.855 94.359 2557.26 0.94234 0.228865 0.244165
158.367 163.047 2442.45 -0.0633228 0.464447 -0.883334
393.455 -242.546 2720 -2.34961e-12 2.46108e-12 1
-6.5625 345.312 2337.5 -0.001492 0.993235 0.116109
238.38 172.431 2422.67 0.754758 -0.353462 0.552635
-161.626 326.721 2432.52 -0.0619003 0.857668 -0.510464
-201.745 -117.962 2590.48 -0.143705 0.981874 0.123578
-116.82 57.5732 2503.77 0.261821 0.0857732 0.961298
308.364 -357.818 2720 4.6579e-12 -2.31684e-12 1
248.518 142.057 2422.67 -0.19707 -0.937277 0.287534
-556.429 240.714 2671.43 -0.085176 0.320526 -0.943402
208.142 107.611 2647.79 -0.322268 -0.0425923 0.94569
8.45528 283.577 2432.52 0.0035808 0.147781 0.989014
-236.593 -12.9222 2636.12 0.214036 -0.910572 0.353621
-286.4 334.4 2393.6 -0.000533744 -0.97694 -0.213514
-401.722 253.9 2355.91 -0.0625562 -0.329272 -0.942161
-531.3 -292.735 2683.41 0.000976398 0.116399 0.993202
-571.643 -152.989 2809.39 0.239544 -0.965589 -0.101275
213.106 147.651 2442.45 0.390775 0.473188 0.789549
-69.1525 33.2203 2535.59 0.944364 0.14381 -0.295796
28.7707 297.385 2412.9 -0.0557286 -0.135846 -0.989161
336.774 257.742 2412.9 -0.061682 -0.311225 -0.948332
-352.022 312.423 2452.46 -0.259788 -0.79775 0.544156
-61.6774 -392.282 2720 -0.253377 0.339126 0.905977
258.313 307.149 2403.21 -0.0242031 -0.1115 0.99347
268.364 -302.545 2720 3.25018e-12 -1.10544e-12 1
53.44 336 2393.6 0.00987048 -0.985879 -0.167167
313.226 97.6774 2412.9 0.347849 -0.0265891 0.937173
23.4318 282.122 2442.45 0.147164 0.0747474 0.986284
-416.68 -181.809 2624.56 0.848542 -0.215258 -0.483363
273.357 117.106 2412.9 -0.388284 -0.804247 -0.449914
138.211 330.407 2432.52 0.0256062 -0.96083 -0.275954
143.415 24.3902 2432.52 0.13961 0.314395 0.93897
-447.619 315.556 2374.6 0.944146 -0.00247371 0.329518
-181.847 217.51 2403.21 0.00922196 0.308613 0.951143
-511.525 -238.87 2535.59 -0.120857 -0.93373 0.336961
-211.556 182.222 2659.56 0.0144056 0.0327423 0.99936
48.3951 183.484 2462.55 -0.185446 -0.805767 -0.562449
-251.525 192.542 2535.59 0.0503927 0.526054 0.848957
-56.733 336.892 2384.06 -0.00458203 -0.978919 -0.204196
-41.6807 153.277 2514.29 -0.553208 0.353197 0.754462
258.387 172.473 2412.9 0.197934 -0.0443847 0.97921
292.47 173.603 2422.67 -0.0191283 -0.920323 0.390692
-372.506 323.311 2422.67 0.236009 -0.959129 -0.156114
-611.34 368 2904.85 0.912606 0.247337 0.325538
-361.629 -282.836 2707.69 0.0803948 -0.0165399 0.996626
-541.511 242.489 2659.56 0.261949 0.334581 0.905228
-281.587 340.635 2374.6 -0.00105412 -0.976939 -0.213514
283.378 -102.4 2659.56 -2.27856e-12 -6.57039e-13 1
-76.4427 -287.462 2601.74 -0.103436 0.0835593 -0.99112
-481.606 343.775 2403.21 -0.107575 -0.985351 -0.13233
168.264 310.744 2472.73 -0.120415 -0.832423 -0.540899
-371.451 345.725 2346.67 -0.0512875 0.954533 0.293662
-176.707 277.269 2403.21 -0.0262676 -0.0349268 0.999045
-396.905 -298.81 2671.43 0.963399 0.239137 -0.121147
-406.614 322.1 2355.91 -0.0733783 0.173204 0.982149
-399.524 3.33333 2671.43 0.0893149 -0.865337 0.493168
38.4127 338.413 2374.6 0.00183989 -0.98331 -0.181929
93.5593 51.5254 2535.59 0.0213522 0.0991408 -0.994844
-471.196 -208.995 2624.56 -0.503991 0.8269 -0.249458
-261.702 296.992 2442.45 0.474977 0.50324 0.721904
-501.429 -127.143 2671.43 -0.439369 0.424143 -0.79187
-506.429 195.714 2671.43 -0.629456 0.00983013 -0.776974
328.178 -142.222 2659.56 -0.293721 0.158414 0.942673
108.178 154.818 2422.67 -0.381214 0.0882635 0.920264
143.144 261.795 2462.55 0.0422275 -0.0177863 0.99895
-381.704 -291.3 2683.41 0.812082 -0.553373 -0.185205
-391.146 331.383 2365.22 0.788144 0.111443 -0.605318
-386.368 22.2422 2683.41 -0.0230252 -0.11909 0.992616
-346.556 297.095 2482.99 -0.014697 0.60948 0.792665
-426.667 346.039 2346.67 0.104009 0.790222 0.60393
-406.457 82.5112 2683.41 -0.148034 0.283301 0.947537
78.2979 -57.5319 2546.38 -0.173072 -0.0847083 0.98126
-512 -203.13 2601.74 0.150242 0.249636 0.956613
-583.704 37.037 2770.37 0.961873 -0.148985 0.229355
-36.3921 345.098 2346.67 -0.00471914 -0.986732 -0.162286
-237.544 -100.351 2624.56 -0.53419 -0.825695 0.181299
-158.596 120.702 2624.56 0.422629 -0.859984 0.286028
-526.637 -302.78 2683.41 5.09105e-12 -7.37993e-14 1
328.67 -78.7685 2671.43 -0.579237 -0.00419705 0.815148
293.117 136.68 2422.67 0.328769 -0.155438 0.931531
-21.7886 287.967 2432.52 -0.00175147 0.0423949 0.999099
-141.613 252.581 2412.9 -0.128447 0.0746724 0.988901
-126.527 112.246 2503.77 0.61853 0.0451662 0.784462
-381.49 345.725 2346.67 -0.114174 0.905752 0.40814
-86.6932 336.892 2384.06 -0.000337891 -0.978924 -0.204223
-356.508 338.731 2374.6 0.0104197 -0.969517 -0.244803
-346.787 -317.333 2695.5 -0.37736 0.076637 0.92289
-206.774 207.419 2412.9 -0.152431 0.455658 0.877007
-146.829 217.467 2412.9 -0.289042 0.387651 0.875318
88.4553 213.333 2432.52 0.147075 -0.988137 0.0442063
28.502 262.478 2422.67 0.752371 -0.641117 0.151348
198.4 334.4 2393.6 0.00147043 -0.985004 -0.172526
-551.467 12.0889 2659.56 -0.0726416 -0.0204034 0.997149
98.3051 -207.458 2535.59 -0.00503605 0.100257 0.994949
-306.783 -100.522 2601.74 -0.102098 -0.0933973 -0.99038
-365.761 320 2462.55 -0.0836647 0.996445 0.00992025
-510.288 293.004 2462.55 -0.372619 0.813215 -0.44703
-191.613 211.828 2412.9 0.00558995 -0.431357 -0.902164
78.3471 307.108 2472.73 0.343822 -0.506198 -0.790917
-461.514 334.661 2384.06 -0.212966 -0.874422 -0.435926
53.2766 142.156 2546.38 0.105523 0.359458 0.927176
-266.911 263.252 2432.52 0.925946 -0.193758 0.324162
-286.745 345.725 2346.67 1.4721e-05 0.981172 0.193137
388.364 -332.364 2720 7.13334e-16 -1.14109e-12 1
-435.789 -143.392 2624.56 -0.0222962 -0.347496 -0.937416
-166.807 137.404 2624.56 0.817315 0.123776 0.56274
-91.8777 3.14411 2613.1 0.0191193 0.990965 0.13275
-401.632 206.367 2442.45 0.0613228 -0.878934 0.472985
-251.758 262.859 2422.67 0.772218 -0.127234 0.622488
-96.7273 -41.8182 2720 -0.0743185 -0.304589 0.94958
-467.066 161.411 2462.55 0.550615 -0.381211 -0.742632
-266.449 223.021 2442.45 -0.30315 0.0702779 -0.950348
-326.723 215.798 2514.29 -0.0127952 0.431423 0.902059
-272.926 314.579 2472.73 0.698824 0.363256 0.61619
39.322 132.881 2535.59 0.385966 0.126145 0.913848
-236.437 327.989 2422.67 -0.0408532 -0.993031 -0.110551
87.8876 156.647 2422.67 -0.18617 -0.0756771 0.979599
-371.995 316.697 2442.45 0.474371 -0.555671 -0.68279
-416.693 287.559 2355.91 0.0971999 -0.00868611 0.995227
-356.68 339.605 2365.22 0.0148297 -0.974983 -0.221783
-352.32 17.7415 2683.41 0.714729 0.640716 0.280438
83.9834 308.05 2482.99 -0.0746294 0.942856 0.324736
68.5689 -47.3729 2546.38 -0.14012 -0.167909 0.975793
-251.191 -92.8936 2659.56 -0.0253062 -0.994221 0.104331
-246.867 -352.275 2568.24 -0.28481 -0.216364 -0.933847
333.571 -118.214 2671.43 -0.177298 0.132103 0.975251
-301.485 117.686 2452.46 -0.561851 -0.586065 0.583825
-486.756 150.756 2659.56 -0.365165 -0.924863 -0.106219
-386.51 345.725 2346.67 -0.117745 0.850279 0.512993
-286.807 317.637 2462.55 0.0342203 -0.991769 0.123386
97.9295 172.052 2442.45 -0.286893 -0.591743 0.753347
-551.889 -143.779 2757.6 0.0782333 -0.913665 -0.398869
248.455 132.032 2432.52 0.515571 -0.0654855 0.854341
197.363 287.211 2482.99 -0.523651 -0.155805 -0.837564
-256.41 -317.558 2557.26 -0.216599 0.353523 -0.910003
94.0984 173.77 2452.46 -0.219527 -0.774065 0.593828
-406.595 176.618 2524.89 -0.0605914 -0.947666 -0.31346
-86.8085 -112.681 2546.38 0.228469 0.121688 0.965916
168.455 330.407 2432.52 0.00757789 -0.973319 -0.229329
293.091 -392.727 2720 2.6728e-12 -2.80848e-12 1
88.4375 345.312 2337.5 -0.00791503 0.986806 0.161716
-266.146 265.886 2432.52 0.863708 0.290863 0.411591
-51.746 340.317 2374.6 -0.00701533 -0.981364 -0.19203
-274.472 228.293 2432.52 0.854087 0.290045 0.431751
-56.7521 -157.607 2557.26 0.261858 -0.0609621 0.963179
-391.529 345.725 2346.67 -0.0903707 0.770522 0.630975
-61.8182 -357.091 2720 0.517177 -0.345145 -0.783201
-200.873 -82.6182 2720 0.208889 0.451313 -0.867572
-305.862 44.8276 2579.31 0.915464 0.34722 0.203381
-396.396 54.7748 2695.5 -0.44685 -0.0711146 0.891778
-466.783 -212.572 2601.74 0.289757 0.327088 -0.899474
-426.877 302.754 2355.91 -0.0608026 0.143492 0.987782
-76.5957 -69.4468 2546.38 0.52878 -0.0155081 0.848617
58.3871 202.904 2412.9 -0.0683578 0.182107 0.9809
-396.923 -216.068 2557.26 -0.333087 0.93619 -0.112258
38.2745 345.098 2346.67 0.000789295 -0.985705 -0.168478
-186.909 -157.818 2720 0.29227 -0.411854 -0.863108
209.555 292.794 2422.67 0.41636 0.00870243 0.909158
-493.615 -211.083 2524.89 0.215061 0.679025 -0.701907
-16.8421 328.745 2422.67 -0.0280819 -0.882461 -0.469547
-370.965 -262.106 2624.56 0.580057 -0.764196 -0.282025
-446.787 212.276 2442.45 0.13666 0.5711 0.809425
308.16 317.333 2393.6 -0.0463156 -0.0295099 0.998491
-162.353 63.1674 2707.69 0.758213 -0.468229 0.453734
283.401 22.0243 2422.67 0.0362723 -0.0416387 0.998474
388.364 -212.364 2720 2.32895e-12 -1.14388e-12 1
-280 7.52137 2557.26 0.767846 0.535287 0.351967
211.591 322.612 2442.45 0.563271 0.230207 0.793555
219.755 5.22449 2442.45 0.19076 -0.656501 0.729806
-366.527 -222.594 2503.77 0.262389 0.429446 0.864134
303.059 344.471 2346.67 0.00108332 0.98737 0.158429
-41.6714 217.342 2432.52 -0.00644512 0.350491 0.936544
-341.303 247.437 2514.29 -0.061095 0.483642 0.873131
-286.723 237.087 2514.29 -0.218352 -0.51511 -0.828845
-512.948 353.278 2472.73 -0.123248 0.344386 0.930703
-211.52 336 2393.6 0.00362159 -0.974662 -0.223652
-516.426 -153.515 2683.41 0.684561 -0.099952 0.722071
-331.922 344.157 2346.67 -0.00486189 0.975548 0.219733
-493.173 340.562 2403.21 0.177699 -0.949014 -0.260377
-6.19308 212.896 2452.46 -0.133085 0.38295 0.914132
48.0769 42.3504 2557.26 0.436645 0.256445 0.862309
-256.481 -134.249 2568.24 -0.102033 0.101373 -0.989602
-447.257 125.57 2524.89 0.911879 0.349471 -0.215281
331.84 327.573 2393.6 0.673108 0.00602304 -0.739519
-276.571 67.5918 2442.45 0.32266 0.601323 -0.730959
-206.726 56.9911 2647.79 0.780133 0.15638 -0.605754
-191.627 197.19 2422.67 0.096443 -0.793887 -0.600369
-71.8508 306.686 2432.52 -0.110629 -0.231365 0.966556
-6.77966 -177.627 2535.59 0.122627 -0.046256 0.991374
258.318 132.577 2422.67 0.659022 -0.291623 0.693286
-141.754 -186.901 2624.56 0.838445 0.422047 0.3448
168.32 334.4 2393.6 0.0206448 -0.986457 -0.162718
-496.667 252.889 2493.33 -0.0313955 -0.0306478 0.999037
-91.7155 92.251 2503.77 -0.00439356 0.230502 0.973062
194.502 289.029 2452.46 0.93431 0.215296 0.284101
-346.939 284.047 2482.99 -0.0172998 0.548711 0.835833
-341.728 320.329 2462.55 -0.0450826 -0.992086 0.11719
-1.63265 287.456 2442.45 -0.0417569 0.17542 0.983608
-76.1319 312.012 2442.45 -0.27888 -0.324722 0.90376
-523.571 158.571 2671.43 -0.177542 0.0285056 -0.9837
37.6068 113.504 2557.26 0.591934 -0.000447871 0.805986
-341.639 312.132 2452.46 0.063663 -0.847838 0.52642
268.289 126.725 2412.9 0.915214 0.0968899 0.391147
-101.719 -123.077 2707.69 0.834254 0.550281 -0.0348078
-181.754 -133.684 2624.56 0.151502 -0.544666 -0.824855
-536.727 -50.9091 2720 0.344105 -0.914964 -0.210789
-26.7163 331.696 2412.9 0.0176397 -0.979517 -0.200589
13.6158 -202.637 2535.59 0.0931873 0.00622886 0.995629
-56.6108 -136.01 2546.38 0.0671173 -0.0494164 -0.996521
-301.862 330.364 2422.67 -0.000255551 -0.963981 -0.265969
-406.372 -328.142 2647.79 0.054302 0.270953 -0.96106
-296.825 340.635 2374.6 0.000992281 -0.976939 -0.213517
-542.185 277.647 2514.29 0.566715 -0.774977 0.279722
-241.242 173.226 2624.56 0.93682 0.00817517 0.349717
-276.8 334.4 2393.6 9.6237e-06 -0.977644 -0.210267
-1.40659 38.4078 2557.26 0.433401 -0.211505 0.87603
63.2469 123.028 2546.38 -0.0977272 0.0621395 0.993271
-446.617 108.198 2482.99 0.978261 -0.0301185 -0.20518
-51.6456 116.504 2524.89 0.912627 -0.17137 -0.37114
83.2653 316.082 2442.45 -0.0213281 0.635767 0.771586
-436.491 134.737 2624.56 -0.206833 0.787727 0.580264
-76.5217 341.186 2365.22 0.000612167 -0.985325 -0.170687
282.986 -27.258 2432.52 -0.450753 -0.67724 -0.581521
393.455 -387.636 2720 2.13204e-12 2.68744e-12 1
-538.667 282.333 2493.33 -0.00055853 0.992238 0.124349
-401.688 -223.46 2524.89 -0.118854 -0.150464 -0.981445
333.226 207.204 2412.9 0.672055 0.226068 -0.705149
-311.674 -212.127 2707.69 -0.104005 0.166507 0.98054
-417.634 81.3617 2546.38 0.99717 -0.00575349 -0.0749623
113.22 -212.542 2535.59 -0.154674 0.057613 0.986284
410.909 -222.545 2720 8.29288e-12 3.62873e-19 -1
268.293 254.959 2432.52 0.388411 0.238141 0.890183
313.455 -222.545 2720 -1.12198e-12 1.1705e-12 1
-96.9869 -257.817 2613.1 0.105278 -0.394603 0.9128
-546.261 213.589 2659.56 0.0254273 0.325315 0.945264
-481.66 257.261 2482.99 0.721606 0.119745 0.681869
-306.606 -287.421 2707.69 -0.0959519 0.116567 0.988537
-41.5451 37.2189 2568.24 0.0297571 -0.079542 0.996387
343.273 -352.727 2720 3.62682e-12 -4.60276e-12 1
-41.5319 -183.83 2546.38 0.479245 0.038485 0.876837
-585.231 123.384 2876.92 0.816815 0.396574 0.418978
113.22 -137.627 2535.59 -0.178085 -0.0482448 0.982832
72.3593 146.61 2546.38 -0.278843 -0.427685 -0.859844
-197.211 52.7035 2659.56 0.605521 0.286118 -0.742618
53.3655 287.984 2452.46 0.843715 0.284454 -0.455226
-400.339 -81.3559 2535.59 -0.463538 -0.871939 -0.157653
-460.197 271.213 2452.46 0.73913 -0.00929909 0.673498
-31.7241 71.2644 2579.31 0.159464 0.246647 0.955895
-71.6667 186 2493.33 0.168455 -0.572125 -0.80268
86.8293 265.366 2432.52 0.30539 0.712744 -0.631453
-9.5082 212.459 2452.46 -0.181698 0.412513 0.892647
327.302 338.731 2374.6 -0.0763351 -0.92786 -0.365033
-436.706 346.039 2346.67 0.0659755 0.942977 0.326254
-435.564 112.14 2546.38 -0.417068 -0.768082 0.485905
293.333 -37.6889 2659.56 -3.40953e-12 -2.03685e-13 1
-311.667 282.5 2493.33 0.0245888 0.414042 0.909925
-426.772 312.756 2355.91 -0.103153 0.199879 0.974376
-506.667 -179.578 2524.89 -0.206216 0.310102 -0.928069
103.374 298.93 2462.55 0.11198 0.386941 0.91528
8.36363 -382.545 2720 -9.61486e-14 -1.0904e-12 1
213.333 261.247 2432.52 0.634891 0.555089 0.537392
138.605 271.735 2472.73 0.164222 0.202389 -0.965438
-81.5873 340.317 2374.6 -9.01653e-05 -0.981529 -0.191315
-21.6949 -23.7288 2535.59 -0.0118852 -0.521429 0.853212
-291.892 -36.5766 2695.5 -0.309699 0.131477 0.941701
287.737 -6.58436 2462.55 -0.484072 -0.333186 -0.809111
143.347 325.878 2442.45 0.0166928 -0.826943 -0.562038
-201.6 172.8 2659.56 -0.231695 -0.0127947 0.972704
-26.3772 93.2088 2568.24 0.191085 -0.97819 -0.0814318
-127.568 -310.631 2695.5 0.250757 -0.381282 -0.889801
-136.826 340.317 2374.6 -5.39269e-05 -0.982295 -0.187341
-211.406 227.47 2403.21 -0.142146 0.111276 0.983571
-491.523 315.72 2462.55 -0.28954 -0.682703 -0.670883
-51.5625 345.312 2337.5 -0.000505575 0.993589 0.113047
-376.709 173.164 2524.89 -0.188905 -0.965011 -0.18185
323.213 287.657 2403.21 0.150337 0.0677064 0.986314
293.226 337.096 2412.9 -0.0538432 0.928228 -0.368095
248.533 -19.9111 2659.56 -0.522029 0.154123 0.838887
-125.68 -251.361 2683.41 0.996797 -0.0021522 0.0799449
-396.423 252.683 2432.52 -0.299217 0.126009 0.945828
-316.423 323.577 2432.52 -0.000930579 -0.915643 -0.401992
-201.488 92.3883 2659.56 0.247429 -0.00313383 -0.968901
-6.36596 -281.838 2546.38 -0.173069 -0.603854 -0.778079
-351.597 232.605 2514.29 0.093635 -0.515049 -0.852031
-346.555 -92.2353 2514.29 0.381639 -0.142977 -0.913186
48.189 342.362 2355.91 0.00273488 -0.985155 -0.171648
108.408 137.633 2442.45 -0.0502932 0.0803707 0.995495
-160.339 -7.79661 2535.59 0.728011 0.685329 -0.0180361
-313.043 -114.087 2601.74 -0.0616857 0.4812 -0.874438
-421.789 213.333 2432.52 0.0891021 0.398208 0.912958
-26.9091 -382.545 2720 -0.00010234 0.116107 0.993237
-361.973 -304.215 2683.41 0.75861 -0.34999 -0.549561
-371.451 344.157 2346.67 -0.0672334 0.948728 0.308861
-366.637 21.2855 2683.41 -0.308565 0.231259 -0.922663
-351.858 -334.513 2647.79 -0.0103013 0.979685 0.20028
58.2771 273.324 2442.45 0.645968 0.562391 -0.51618
-453.333 331.398 2412.9 -0.0811183 -0.948651 -0.305746
-435.357 -384.286 2671.43 0.942913 0.118498 0.311244
-296.601 341.186 2365.22 0.00212429 -0.980881 -0.194596
-279.344 253.115 2452.46 0.966621 -0.0263919 0.254847
-206.74 222.419 2403.21 -0.102205 0.250823 0.962623
248.364 -282.545 2720 4.54229e-12 -2.38377e-12 1
123.486 306.722 2482.99 0.00276412 -0.606862 -0.794802
-583.128 367.773 2836.02 0.617907 0.77329 0.142171
-221.458 -20.5078 2695.5 0.870936 -0.102079 -0.480676
-346.575 -83.1914 2524.89 -0.55567 -0.623388 0.550108
-351.73 221.097 2524.89 0.260373 -0.29329 -0.919884
-36.6798 339.605 2365.22 -0.00362053 -0.984067 -0.177762
333.091 -159.637 2720 -8.67924e-13 3.27849e-12 -1
-126.562 345.312 2337.5 0.0020179 0.984419 0.175827
-91.6667 177.333 2493.33 0.00070656 0.29119 0.956665
-326.695 257.406 2503.77 -0.00683601 0.382242 0.924037
410.909 -337.455 2720 0 0 -1
-486.816 -294.529 2683.41 0.0432429 -0.0395806 -0.99828
-496.443 341.502 2365.22 -0.0922205 -0.974066 -0.206619
-321.853 334.248 2393.6 0.0389284 -0.978868 -0.200754
-516.488 138.901 2636.12 -0.253395 0.966935 -0.0287625
-305.173 34.4828 2579.31 0.619776 0.771213 0.145283
-422.371 42.8936 2546.38 0.915219 -0.0478311 0.400108
-401.46 -297.389 2647.79 -0.514493 -0.355711 0.780235
168.963 240.332 2482.99 -0.324756 0.097797 0.940728
-574.524 261.191 2671.43 0.912818 0.222943 0.342139
-571.349 -63.201 2671.43 0.90165 0.123164 0.414556
-81.5625 344.375 2337.5 0.00828149 0.992307 0.123526
-263.089 61.1382 2432.52 -0.0539651 -0.296915 0.953378
-311.597 242.801 2514.29 -0.00486975 0.482286 0.876
203.294 346.039 2346.67 -0.000395419 0.981766 0.190092
-1.71085 262.001 2432.52 0.00525442 -0.679363 0.733784
147.091 119.144 2422.67 0.372918 -0.18011 -0.910216
200.162 144.453 2422.67 -0.238109 -0.253589 -0.937548
-341.883 -47.713 2683.41 0.256174 -0.445482 -0.857858
173.177 344.157 2346.67 0.0145279 0.98303 0.182871
-556.009 357.623 2683.41 0.727754 -0.541208 -0.421269
-546.368 -272.646 2683.41 0.312027 0.656504 0.686761
-296.64 334.4 2393.6 -0.000615533 -0.976941 -0.213509
138.361 312.786 2452.46 -0.628989 -0.770565 0.10297
298.56 297.92 2393.6 -0.00518719 0.400163 0.916429
-471.647 285.301 2403.21 0.780859 -0.528089 0.333738
-326.632 242.544 2514.29 -0.00515621 0.508449 0.861077
-395.536 -314.579 2683.41 0.999255 0.0359659 -0.0139674
-461.695 -232.542 2535.59 0.911086 0.33675 0.237742
-401.435 16.9327 2683.41 0.00395117 -0.065702 0.997831
-251.428 208.327 2442.45 -0.130939 0.213456 -0.968138
-61.3182 -387.046 2720 -0.0603349 0.12073 0.99085
73.4545 -357.818 2720 2.80665e-13 3.42557e-16 1
-76.4228 207.263 2432.52 -0.178385 0.34227 0.922513
-506.556 257.261 2482.99 -0.031472 -0.0835954 0.996003
-151.477 237.504 2412.9 -0.194505 -0.0600907 0.979059
123.457 321.712 2462.55 0.0174729 -0.812424 -0.582806
-326.84 -93.4004 2546.38 0.438752 0.887042 -0.143715
-212.008 16.7642 2624.56 -0.0563435 -0.988124 -0.142959
-316.653 240.335 2503.77 0.00394116 0.50269 0.864458
-481.646 308.477 2462.55 0.432911 -0.202089 0.878492
158.354 321.975 2462.55 0.00143355 -0.823352 -0.567529
-156.61 170.847 2535.59 0.974621 0.193223 0.113041
-132.968 -221.005 2732.42 -0.269965 0.175342 -0.94677
-401.634 -182.909 2659.56 0.295566 -0.113776 0.948523
-276.066 257.049 2452.46 0.873063 0.126075 0.471026
63.3725 343.843 2346.67 0.0119802 -0.98504 -0.171911
-251.669 76.9448 2452.46 0.326657 0.599689 -0.730526
203.29 -117.472 2590.48 -0.450764 0.21737 0.865772
73.597 139.51 2535.59 0.661656 -0.479969 -0.576057
78.3051 -177.627 2535.59 -1.02346e-05 -0.129056 0.991637
318.387 242.304 2412.9 0.0907964 -0.0108123 0.995811
-246.802 252.169 2422.67 -0.543292 -0.525288 -0.654909
-266.787 -207.421 2707.69 0.000423715 0.0811634 0.996701
-346.667 -47.4234 2695.5 0.162845 0.872746 -0.460213
53.0909 -327.273 2720 -4.18477e-14 1.55492e-12 1
248.496 -72.2124 2647.79 0.234982 0.019659 -0.971801
-116.571 322.286 2442.45 0.258399 -0.395497 -0.881369
-407.675 -102.124 2636.12 0.91359 -0.118996 0.388837
153.098 345.725 2346.67 0.00242111 0.98765 0.156655
-201.938 -128.635 2636.12 -0.124076 -0.29389 0.947752
243.433 237.471 2432.52 0.70437 -0.120101 0.699599
-186.884 187.872 2659.56 0.238211 -0.0534929 0.969739
-446.609 -222.609 2601.74 -0.105532 -0.0491351 0.993201
-161.562 345.312 2337.5 -0.000200021 0.984117 0.17752
-391.545 222.439 2432.52 -0.130283 0.198184 0.971468
-336.346 -142.222 2535.59 0.410796 -0.733666 0.541277
-341.344 178.024 2535.59 -0.0378281 -0.478648 -0.877191
-120.961 -303.319 2613.1 0.942275 -0.213722 0.25776
263.775 282.731 2403.21 0.301497 0.278641 0.911844
278.554 174.137 2403.21 -0.163175 0.201484 -0.965804
-436.706 343.843 2346.67 0.0717545 0.856756 0.510705
-141.613 329.677 2412.9 0.0337458 -0.874464 -0.483916
